VERSION .7
FIELDS x y z label object
SIZE 4 4 4 4 4
TYPE F F F I I
COUNT 1 1 1 1 1
WIDTH 859
HEIGHT 1
POINTS 859
VIEWPOINT 0 0 0 1 0 0 0
DATA ascii
110.9000015258789 87 -16.66699981689453 0 -1
121.30000305175781 80 -14.253999710083008 0 -1
116.5 90.19999694824219 -14.835000038146973 0 -1
118.5999984741211 85.80000305175781 -13.994000434875488 0 -1
118.30000305175781 76.5 -13.27299976348877 0 -1
114.30000305175781 84.5 -15.404000282287598 0 -1
119.5999984741211 75.9000015258789 -12.583999633789062 0 -1
119.30000305175781 78.80000305175781 -12.907999992370605 0 -1
117.0999984741211 89.0999984741211 -14.746000289916992 0 -1
121.5999984741211 83.4000015258789 -7.78000020980835 1 -1
111.9000015258789 76.4000015258789 -14.088000297546387 0 -1
119.9000015258789 88.30000305175781 -14.375 0 -1
120 83.4000015258789 -13.687000274658203 0 -1
122.69999694824219 82 -14.380999565124512 0 -1
111.69999694824219 81.5 -13.947999954223633 0 -1
119.80000305175781 78.4000015258789 -12.895000457763672 0 -1
115.30000305175781 86.69999694824219 -15.38599967956543 0 -1
117.4000015258789 82.5 -13.295000076293945 0 -1
113.0999984741211 84 -15.53499984741211 0 -1
113.5 82.80000305175781 -14.861000061035156 0 -1
114.4000015258789 89.80000305175781 -14.913000106811523 0 -1
115.5 91.9000015258789 -12.83899974822998 0 -1
115.4000015258789 77.19999694824219 -12.515999794006348 0 -1
112.0999984741211 82.0999984741211 -13.741999626159668 0 -1
118.0999984741211 79.4000015258789 -13.51099967956543 0 -1
121.80000305175781 80.9000015258789 -14.270999908447266 0 -1
118 82.80000305175781 -7.295000076293945 1 -1
116.80000305175781 86.4000015258789 -15.821999549865723 0 -1
118.9000015258789 82 -13.697999954223633 0 -1
117 86.80000305175781 -14.942999839782715 0 -1
121.4000015258789 77.19999694824219 -12.3149995803833 0 -1
120.9000015258789 93.69999694824219 -11.741000175476074 0 -1
113.0999984741211 79.0999984741211 -14.041000366210938 0 -1
114.69999694824219 82.9000015258789 -14.657999992370605 0 -1
110.5 78.19999694824219 -11.994999885559082 0 -1
112.5999984741211 85 -15.425999641418457 0 -1
115.19999694824219 85.5999984741211 -15.463000297546387 0 -1
115.5 76.5 -12.72599983215332 0 -1
112.5 88.30000305175781 -15.814000129699707 0 -1
119.69999694824219 92.5 -13.170999526977539 0 -1
116.4000015258789 92.30000305175781 -11.739999771118164 0 -1
116.69999694824219 83.80000305175781 -14.036999702453613 0 -1
120.4000015258789 83.30000305175781 -4.789999961853027 1 -1
111.0999984741211 78.30000305175781 -13.6899995803833 0 -1
118.19999694824219 94 -10.579999923706055 0 -1
117.0999984741211 90.0999984741211 -14.967000007629395 0 -1
114.0999984741211 76.5 -12.890000343322754 0 -1
121.4000015258789 92.5999984741211 -13.465999603271484 0 -1
116.5 81.30000305175781 -12.196999549865723 0 -1
115.9000015258789 75.9000015258789 -12.772000312805176 0 -1
116.5999984741211 78 -11.782999992370605 0 -1
120.5 88.69999694824219 -14.218000411987305 0 -1
111.5999984741211 79.30000305175781 -13.760000228881836 0 -1
110 81.0999984741211 -11.803000450134277 0 -1
117.30000305175781 89.4000015258789 -14.937999725341797 0 -1
119.4000015258789 85 -13.920000076293945 0 -1
119.5999984741211 91.19999694824219 -13.972999572753906 0 -1
116.19999694824219 88.30000305175781 -14.833000183105469 0 -1
120.69999694824219 90.69999694824219 -8.685999870300293 1 -1
114.9000015258789 93.5 -10.645000457763672 0 -1
122.5 87 -14.954999923706055 0 -1
118.5999984741211 86 -13.994000434875488 0 -1
118.30000305175781 76.30000305175781 -12.890000343322754 0 -1
111.9000015258789 76.19999694824219 -14.38700008392334 0 -1
116.5 90.5 -13.930000305175781 0 -1
116.4000015258789 79 -12.119000434875488 0 -1
121.9000015258789 91.4000015258789 -13.706000328063965 0 -1
116 80.19999694824219 -11.951000213623047 0 -1
112 87.4000015258789 -15.944999694824219 0 -1
123 88.5999984741211 -15.157999992370605 0 -1
118.19999694824219 93.9000015258789 -10.732999801635742 0 -1
117.69999694824219 77.4000015258789 -13.33899974822998 0 -1
113.0999984741211 79 -14.041000366210938 0 -1
115.80000305175781 84.30000305175781 -14.567999839782715 0 -1
110.30000305175781 77.0999984741211 -11.996000289916992 0 -1
114.5999984741211 92.69999694824219 -11.98799991607666 0 -1
120.5999984741211 78.0999984741211 -13.319999694824219 0 -1
122.80000305175781 78.5999984741211 -13.059000015258789 0 -1
118.4000015258789 84.80000305175781 -14.324999809265137 0 -1
120.30000305175781 79.4000015258789 -13.48900032043457 0 -1
111.80000305175781 77.0999984741211 -13.442999839782715 0 -1
115.69999694824219 85 -15.27400016784668 0 -1
114.0999984741211 93.9000015258789 -9.852999687194824 0 -1
113.69999694824219 79.9000015258789 -13.965999603271484 0 -1
116.4000015258789 92.4000015258789 -11.47599983215332 0 -1
118.80000305175781 81.80000305175781 -14.347999572753906 0 -1
113.4000015258789 87.69999694824219 -15.473999977111816 0 -1
117.80000305175781 92.80000305175781 -11.36299991607666 0 -1
115.9000015258789 75.80000305175781 -12.833000183105469 0 -1
120.80000305175781 76.5 -12.744000434875488 0 -1
116.9000015258789 85.69999694824219 -15.057000160217285 0 -1
120.5 88.5999984741211 -14.173999786376953 0 -1
110.69999694824219 85.9000015258789 -16.74799919128418 0 -1
122.5999984741211 85.80000305175781 -15.251999855041504 0 -1
117.30000305175781 89.30000305175781 -14.77400016784668 0 -1
119.5999984741211 91.30000305175781 -13.866999626159668 0 -1
119.69999694824219 92.5999984741211 -13.232999801635742 0 -1
122.0999984741211 84.80000305175781 -14.85200023651123 0 -1
118 81.69999694824219 -13.880999565124512 0 -1
120.4000015258789 83.19999694824219 -4.841000080108643 1 -1
112.5999984741211 86 -15.878000259399414 0 -1
111.19999694824219 78.19999694824219 -13.6899995803833 0 -1
110.5999984741211 78.69999694824219 -12.99899959564209 0 -1
113.0999984741211 84.19999694824219 -15.560999870300293 0 -1
112.30000305175781 76 -14.321000099182129 0 -1
117.19999694824219 84.19999694824219 -14.005999565124512 0 -1
121.69999694824219 83.69999694824219 -14.4350004196167 0 -1
121.80000305175781 78.80000305175781 -13.843000411987305 0 -1
112.69999694824219 88.69999694824219 -14.836999893188477 0 -1
122.19999694824219 84.80000305175781 -14.541999816894531 0 -1
114.80000305175781 89.5999984741211 -14.982999801635742 0 -1
119.4000015258789 85.19999694824219 -13.920000076293945 0 -1
116.4000015258789 79.0999984741211 -12.133999824523926 0 -1
116 80.30000305175781 -11.979000091552734 0 -1
110.4000015258789 74.80000305175781 -11.934000015258789 0 -1
112.0999984741211 82.80000305175781 -13.89900016784668 0 -1
121.4000015258789 93.80000305175781 -11.92199993133545 0 -1
121.19999694824219 95 -11.463000297546387 0 -1
122.80000305175781 78.69999694824219 -13.090999603271484 0 -1
122.30000305175781 79.80000305175781 -14.58899974822998 0 -1
119.0999984741211 83 -4.426000118255615 1 -1
116.5 90.5999984741211 -14.628999710083008 0 -1
121.9000015258789 91.5 -13.524999618530273 0 -1
116.0999984741211 79 -12.130999565124512 0 -1
114.19999694824219 81.80000305175781 -13.687999725341797 0 -1
113.5 82.69999694824219 -14.821000099182129 0 -1
117.80000305175781 92.9000015258789 -11.467000007629395 0 -1
113.80000305175781 83.80000305175781 -15.258000373840332 0 -1
120.69999694824219 81.5 -13.946000099182129 0 -1
114.30000305175781 84.5999984741211 -15.406999588012695 0 -1
115.5 91.69999694824219 -12.767000198364258 0 -1
119 89.19999694824219 -14.986000061035156 0 -1
112.4000015258789 87.5999984741211 -15.741000175476074 0 -1
119.19999694824219 75.80000305175781 -12.852999687194824 0 -1
121.5999984741211 84.5 -13.888999938964844 0 -1
121.5 86.80000305175781 -14.277999877929688 0 -1
112.80000305175781 88.9000015258789 -15.918999671936035 0 -1
120.0999984741211 77 -12.27400016784668 0 -1
119.30000305175781 78.5999984741211 -12.907999992370605 0 -1
113.5 81.69999694824219 -13.432000160217285 0 -1
113.9000015258789 86.69999694824219 -15.99899959564209 0 -1
118.4000015258789 79.69999694824219 -13.38599967956543 0 -1
118.5999984741211 85.9000015258789 -13.95300006866455 0 -1
118.30000305175781 76.4000015258789 -13.213000297546387 0 -1
120.5999984741211 78.19999694824219 -13.630000114440918 0 -1
114.69999694824219 82.69999694824219 -14.123000144958496 0 -1
115.5 76.30000305175781 -12.944999694824219 0 -1
116.9000015258789 85.80000305175781 -15.060999870300293 0 -1
116.80000305175781 86.0999984741211 -15.793000221252441 0 -1
112.69999694824219 88.5999984741211 -14.954000473022461 0 -1
119.5 86.5 -13.994999885559082 0 -1
120.9000015258789 77.19999694824219 -12.293000221252441 0 -1
121.4000015258789 93.69999694824219 -12.282999992370605 0 -1
119.9000015258789 88.19999694824219 -14.5649995803833 0 -1
122.30000305175781 77.9000015258789 -13.321999549865723 0 -1
117.69999694824219 90.69999694824219 -14.302000045776367 0 -1
119.80000305175781 78.5 -12.980999946594238 0 -1
112 87.69999694824219 -15.798999786376953 0 -1
111.69999694824219 81.4000015258789 -13.991000175476074 0 -1
111.0999984741211 78.0999984741211 -13.63599967956543 0 -1
115.30000305175781 86.5999984741211 -15.984000205993652 0 -1
121.30000305175781 81.69999694824219 -14.02400016784668 0 -1
116.5999984741211 93.4000015258789 -10.70199966430664 0 -1
120.30000305175781 92.69999694824219 -12.843000411987305 0 -1
120.5999984741211 93.5999984741211 -11.909000396728516 0 -1
111.4000015258789 87.69999694824219 -16.64900016784668 0 -1
110 80.9000015258789 -11.979999542236328 0 -1
117.19999694824219 84.0999984741211 -13.979000091552734 0 -1
113.19999694824219 92.0999984741211 -12.92199993133545 0 -1
112.30000305175781 76.5999984741211 -13.805000305175781 0 -1
120.30000305175781 79.5999984741211 -13.381999969482422 0 -1
113.0999984741211 84.0999984741211 -15.593000411987305 0 -1
115.0999984741211 90.4000015258789 -14.965999603271484 0 -1
114.4000015258789 89.69999694824219 -14.944000244140625 0 -1
112.5 88.9000015258789 -14.92300033569336 0 -1
117 86.9000015258789 -14.86400032043457 0 -1
114.19999694824219 81.9000015258789 -13.668000221252441 0 -1
118.69999694824219 89.30000305175781 -15.333000183105469 0 -1
120.0999984741211 94.4000015258789 -11.90999984741211 0 -1
115.5 76.4000015258789 -12.88599967956543 0 -1
115.19999694824219 85.69999694824219 -15.479000091552734 0 -1
119.19999694824219 75.9000015258789 -12.758999824523926 0 -1
118 82.69999694824219 -7.752999782562256 1 -1
120.4000015258789 83.4000015258789 -4.89300012588501 1 -1
118.9000015258789 82.0999984741211 -7.921999931335449 1 -1
117.5999984741211 80.69999694824219 -13.222999572753906 0 -1
117.0999984741211 90 -14.956999778747559 0 -1
120.9000015258789 90.5999984741211 -14.121999740600586 0 -1
116.5 81.19999694824219 -12.312000274658203 0 -1
113.19999694824219 91.69999694824219 -12.354999542236328 0 -1
118.5999984741211 78.4000015258789 -13.923999786376953 0 -1
115 94.80000305175781 -8.817000389099121 0 -1
119.0999984741211 82.9000015258789 -4.427999973297119 1 -1
122.5999984741211 84.19999694824219 -14.647000312805176 0 -1
119.5 86.4000015258789 -13.99899959564209 0 -1
121.5 86.9000015258789 -14.001999855041504 0 -1
116.4000015258789 92.19999694824219 -11.84000015258789 0 -1
114.80000305175781 89.80000305175781 -14.774999618530273 0 -1
115.5999984741211 80.19999694824219 -12.454000473022461 0 -1
122.9000015258789 84.30000305175781 -14.77299976348877 0 -1
110.4000015258789 75 -11.99899959564209 0 -1
120.5 88.80000305175781 -14.173999786376953 0 -1
111.5999984741211 79.19999694824219 -13.692000389099121 0 -1
110 81 -11.939000129699707 0 -1
116.19999694824219 88.19999694824219 -14.937000274658203 0 -1
118.69999694824219 89.4000015258789 -15.333000183105469 0 -1
118.4000015258789 79.5 -13.47599983215332 0 -1
114.5 89.9000015258789 -14.996999740600586 0 -1
116.5 90.4000015258789 -14.732999801635742 0 -1
110.30000305175781 77.30000305175781 -12.913000106811523 0 -1
114.9000015258789 93.5999984741211 -10.413000106811523 0 -1
110.5999984741211 78.80000305175781 -12.991000175476074 0 -1
122.5 87.0999984741211 -15.015000343322754 0 -1
114.5 89.30000305175781 -14.980999946594238 0 -1
114.0999984741211 76.0999984741211 -13.656999588012695 0 -1
116.4000015258789 78.9000015258789 -12.133999824523926 0 -1
113.80000305175781 83.0999984741211 -14.928999900817871 0 -1
115.9000015258789 76 -12.800999641418457 0 -1
120.0999984741211 76.80000305175781 -12.378999710083008 0 -1
111.4000015258789 87.80000305175781 -16.650999069213867 0 -1
120.9000015258789 90.5 -9.562999725341797 1 -1
112.5999984741211 85.9000015258789 -15.90999984741211 0 -1
118.80000305175781 81.9000015258789 -13.774999618530273 0 -1
114.5999984741211 77.4000015258789 -12.333999633789062 0 -1
114.5999984741211 92.5999984741211 -11.984999656677246 0 -1
117.5 80.5999984741211 -13.16100025177002 0 -1
110.69999694824219 85.80000305175781 -16.364999771118164 0 -1
115.69999694824219 85.0999984741211 -15.295000076293945 0 -1
117.4000015258789 82.9000015258789 -13.48900032043457 0 -1
113.69999694824219 80.80000305175781 -13.437999725341797 0 -1
116.30000305175781 87.4000015258789 -15.317999839782715 0 -1
110.9000015258789 86.9000015258789 -16.687000274658203 0 -1
120.69999694824219 90.80000305175781 -14.038000106811523 0 -1
114 89 -14.829999923706055 0 -1
113.30000305175781 82.9000015258789 -14.890000343322754 0 -1
116.5999984741211 93.19999694824219 -10.70199966430664 0 -1
120.30000305175781 92.9000015258789 -12.152999877929688 0 -1
120.80000305175781 76.4000015258789 -12.559000015258789 0 -1
115.4000015258789 90.4000015258789 -14.986000061035156 0 -1
118.0999984741211 79.80000305175781 -13.314000129699707 0 -1
119.5999984741211 76 -12.692000389099121 0 -1
121.69999694824219 83.5999984741211 -8.692000389099121 1 -1
118 81.5999984741211 -13.967000007629395 0 -1
113.0999984741211 84.30000305175781 -15.590999603271484 0 -1
111.19999694824219 78.0999984741211 -13.484999656677246 0 -1
113.4000015258789 87.80000305175781 -15.402999877929688 0 -1
110.4000015258789 74.9000015258789 -11.956999778747559 0 -1
119.19999694824219 76.19999694824219 -12.121000289916992 0 -1
113.4000015258789 87.30000305175781 -15.472000122070312 0 -1
121.4000015258789 93.9000015258789 -11.131999969482422 0 -1
113.0999984741211 79.19999694824219 -13.944000244140625 0 -1
120 83.30000305175781 -13.722999572753906 0 -1
119 89.0999984741211 -14.989999771118164 0 -1
119.69999694824219 92.19999694824219 -13.477999687194824 0 -1
121.30000305175781 81.9000015258789 -14.420000076293945 0 -1
119.19999694824219 91.19999694824219 -14.777000427246094 0 -1
119.5 86.0999984741211 -13.96399974822998 0 -1
113.5 82.5999984741211 -14.74899959564209 0 -1
116.5999984741211 77.9000015258789 -11.845999717712402 0 -1
114.69999694824219 82.80000305175781 -14.13700008392334 0 -1
121.5999984741211 84.5999984741211 -13.62399959564209 0 -1
112.4000015258789 87.69999694824219 -15.772000312805176 0 -1
118.4000015258789 84.69999694824219 -13.925000190734863 0 -1
110.9000015258789 86.80000305175781 -16.621000289916992 0 -1
120.0999984741211 76.9000015258789 -12.211999893188477 0 -1
116.0999984741211 79.0999984741211 -12.137999534606934 0 -1
111.0999984741211 78.19999694824219 -13.654000282287598 0 -1
115.69999694824219 85.9000015258789 -14.802000045776367 0 -1
121.30000305175781 95 -11.333000183105469 0 -1
113.5 81.5999984741211 -13.529000282287598 0 -1
118.5999984741211 85.5999984741211 -14.168999671936035 0 -1
118.30000305175781 76.69999694824219 -13.27299976348877 0 -1
114.30000305175781 84.69999694824219 -15.833000183105469 0 -1
110.5 78.30000305175781 -11.977999687194824 0 -1
115.5 76.19999694824219 -12.88599967956543 0 -1
121 89.80000305175781 -14.279999732971191 0 -1
112.80000305175781 88.80000305175781 -15.923999786376953 0 -1
116.69999694824219 83.9000015258789 -14.020000457763672 0 -1
112 87.80000305175781 -15.720000267028809 0 -1
111.69999694824219 81.30000305175781 -13.972999572753906 0 -1
115.30000305175781 86.5 -15.98799991607666 0 -1
119.30000305175781 78.69999694824219 -12.963000297546387 0 -1
115.4000015258789 77.0999984741211 -12.630000114440918 0 -1
111.80000305175781 77.5 -13.604000091552734 0 -1
116.30000305175781 87.30000305175781 -15.434000015258789 0 -1
112.0999984741211 82.69999694824219 -13.87399959564209 0 -1
114.19999694824219 80.9000015258789 -13.732000350952148 0 -1
120.69999694824219 81.5999984741211 -13.935999870300293 0 -1
114.5999984741211 77.19999694824219 -12.333999633789062 0 -1
119.9000015258789 88.0999984741211 -14.541000366210938 0 -1
120 83.19999694824219 -13.906000137329102 0 -1
118.30000305175781 88 -15.302000045776367 0 -1
122.5999984741211 84.0999984741211 -14.331000328063965 0 -1
119.80000305175781 78.5999984741211 -12.984000205993652 0 -1
117.4000015258789 82.69999694824219 -13.48900032043457 0 -1
114.9000015258789 93.80000305175781 -9.878000259399414 0 -1
114.4000015258789 89.5999984741211 -14.913000106811523 0 -1
118.19999694824219 93.80000305175781 -10.791000366210938 0 -1
112.5 89 -14.930999755859375 0 -1
120.30000305175781 79.5 -13.715999603271484 0 -1
110 81.30000305175781 -11.902999877929688 0 -1
117.30000305175781 89.19999694824219 -14.982999801635742 0 -1
119.5999984741211 91.4000015258789 -13.972999572753906 0 -1
116.19999694824219 88.0999984741211 -14.994000434875488 0 -1
118 82.5999984741211 -13.744999885559082 0 -1
122.80000305175781 94.4000015258789 -11.87399959564209 0 -1
118.9000015258789 82.19999694824219 -7.873000144958496 1 -1
122.9000015258789 84.19999694824219 -14.656000137329102 0 -1
111.19999694824219 78.30000305175781 -13.708000183105469 0 -1
117 87 -14.878000259399414 0 -1
115.80000305175781 84.4000015258789 -14.765999794006348 0 -1
110.4000015258789 75.0999984741211 -11.956999778747559 0 -1
117.5 80.4000015258789 -13.359999656677246 0 -1
122.19999694824219 84.9000015258789 -14.932000160217285 0 -1
120.80000305175781 76.30000305175781 -12.793000221252441 0 -1
117.0999984741211 89.9000015258789 -14.967000007629395 0 -1
115.19999694824219 85.30000305175781 -14.979999542236328 0 -1
118.80000305175781 81.5 -14.373000144958496 0 -1
119.4000015258789 85.30000305175781 -13.894000053405762 0 -1
110.30000305175781 77.19999694824219 -11.934000015258789 0 -1
120.5 88.9000015258789 -14.218000411987305 0 -1
112.19999694824219 79.4000015258789 -13.986000061035156 0 -1
111.80000305175781 77.4000015258789 -13.54699993133545 0 -1
118.19999694824219 93.69999694824219 -10.967000007629395 0 -1
114.5999984741211 77.30000305175781 -12.430000305175781 0 -1
113.9000015258789 86.30000305175781 -15.951000213623047 0 -1
120.0999984741211 94.30000305175781 -11.706000328063965 0 -1
112.0999984741211 82.9000015258789 -13.847999572753906 0 -1
110.69999694824219 85.19999694824219 -14.984000205993652 0 -1
115.5999984741211 80.5999984741211 -12.480999946594238 0 -1
112.69999694824219 89 -14.947999954223633 0 -1
111.5999984741211 79.5999984741211 -13.890999794006348 0 -1
110 81.4000015258789 -11.949000358581543 0 -1
121 89.5999984741211 -14.597000122070312 0 -1
111.0999984741211 78.5 -13.932000160217285 0 -1
117.30000305175781 89.0999984741211 -14.77400016784668 0 -1
117.5999984741211 80.80000305175781 -13.170999526977539 0 -1
119.5999984741211 91.5 -13.649999618530273 0 -1
114.19999694824219 81 -13.781999588012695 0 -1
114.69999694824219 82.0999984741211 -14.097999572753906 0 -1
119.30000305175781 78.5 -12.993000030517578 0 -1
111.4000015258789 87.30000305175781 -16.591999053955078 0 -1
112.5999984741211 85.80000305175781 -15.883000373840332 0 -1
121.80000305175781 78.69999694824219 -13.904999732971191 0 -1
116.5999984741211 93.30000305175781 -10.593999862670898 0 -1
116.4000015258789 93.0999984741211 -10.685999870300293 0 -1
110.30000305175781 76.9000015258789 -11.982999801635742 0 -1
120.30000305175781 92.80000305175781 -12.335000038146973 0 -1
120.5999984741211 78.30000305175781 -13.668999671936035 0 -1
118.0999984741211 79.69999694824219 -13.36299991607666 0 -1
117.4000015258789 82.80000305175781 -13.371999740600586 0 -1
120.69999694824219 90.9000015258789 -8.685999870300293 1 -1
118.4000015258789 84.5 -14.196000099182129 0 -1
118.4000015258789 79.5999984741211 -13.343999862670898 0 -1
117.80000305175781 93 -11.989999771118164 0 -1
120.0999984741211 77.19999694824219 -12.751999855041504 0 -1
116.9000015258789 85.9000015258789 -15.305999755859375 0 -1
118 81.5 -13.880999565124512 0 -1
116 80.4000015258789 -12.13700008392334 0 -1
116.9000015258789 86 -15.359000205993652 0 -1
112 87.5999984741211 -15.720000267028809 0 -1
121.30000305175781 81.80000305175781 -14.196999549865723 0 -1
121.19999694824219 94.30000305175781 -12.079999923706055 0 -1
116.30000305175781 87.80000305175781 -14.994999885559082 0 -1
117.19999694824219 84 -13.821000099182129 0 -1
116.4000015258789 79.80000305175781 -12.163000106811523 0 -1
113.0999984741211 79.30000305175781 -13.902999877929688 0 -1
112.30000305175781 76.69999694824219 -14.175000190734863 0 -1
112.19999694824219 79.5999984741211 -13.986000061035156 0 -1
114.80000305175781 89.4000015258789 -14.939000129699707 0 -1
116.0999984741211 79.69999694824219 -11.965999603271484 0 -1
120.30000305175781 79.69999694824219 -13.715999603271484 0 -1
122.5 87.19999694824219 -15.102999687194824 0 -1
115.4000015258789 90.80000305175781 -13.251999855041504 0 -1
112.4000015258789 87.80000305175781 -15.741000175476074 0 -1
118.80000305175781 94.80000305175781 -9.847000122070312 0 -1
121.5999984741211 84.69999694824219 -14.404999732971191 0 -1
121 89.69999694824219 -14.315999984741211 0 -1
121.5 87 -14.041000366210938 0 -1
115.0999984741211 90.5 -14.928000450134277 0 -1
117.69999694824219 77.5 -12.975000381469727 0 -1
113.4000015258789 87.4000015258789 -15.470999717712402 0 -1
113.19999694824219 91.80000305175781 -12.593999862670898 0 -1
118.5999984741211 85.69999694824219 -14.052000045776367 0 -1
118.30000305175781 76.5999984741211 -13.213000297546387 0 -1
113.69999694824219 80.69999694824219 -13.468000411987305 0 -1
120.5999984741211 93.19999694824219 -12.375 0 -1
119.0999984741211 82.80000305175781 -4.426000118255615 1 -1
111.9000015258789 76.0999984741211 -14.383999824523926 0 -1
113.30000305175781 82 -13.902000427246094 0 -1
116.5999984741211 94.0999984741211 -9.99899959564209 0 -1
116.5 90.80000305175781 -14.659000396728516 0 -1
111.69999694824219 81.19999694824219 -13.880999565124512 0 -1
115.69999694824219 86 -14.925999641418457 0 -1
115.30000305175781 86.4000015258789 -15.935999870300293 0 -1
121.69999694824219 83.5 -14.4350004196167 0 -1
112.69999694824219 88.9000015258789 -14.836999893188477 0 -1
113.5 82.5 -14.821000099182129 0 -1
117.80000305175781 93.0999984741211 -11.715999603271484 0 -1
110.5999984741211 77.9000015258789 -12.993000030517578 0 -1
114 88.0999984741211 -15.586000442504883 0 -1
121.19999694824219 76.9000015258789 -12.378999710083008 0 -1
116 80.5 -12.107999801635742 0 -1
119.0999984741211 82.69999694824219 -4.421999931335449 1 -1
111.4000015258789 87.4000015258789 -16.555999755859375 0 -1
114.0999984741211 93.5 -10.791999816894531 0 -1
112.80000305175781 88.5999984741211 -15.800999641418457 0 -1
115.80000305175781 84.5999984741211 -14.930999755859375 0 -1
113.9000015258789 86.5 -15.913000106811523 0 -1
115.0999984741211 90.5999984741211 -13.899999618530273 0 -1
120.0999984741211 77.30000305175781 -12.4399995803833 0 -1
117.69999694824219 90.80000305175781 -14.560999870300293 0 -1
118.69999694824219 89.5 -14.979999542236328 0 -1
118.4000015258789 79.4000015258789 -13.248000144958496 0 -1
114.5 89.19999694824219 -14.942000389099121 0 -1
114.30000305175781 84.30000305175781 -15.404000282287598 0 -1
119.80000305175781 78.69999694824219 -12.977999687194824 0 -1
119.4000015258789 85.5 -13.809000015258789 0 -1
120.69999694824219 81.69999694824219 -7.86299991607666 1 -1
114.9000015258789 93.69999694824219 -10.211999893188477 0 -1
120.9000015258789 90.4000015258789 -9.607999801635742 1 -1
113.19999694824219 91.9000015258789 -12.42300033569336 0 -1
120.30000305175781 93 -12.335000038146973 0 -1
120.5999984741211 93.30000305175781 -12.92300033569336 0 -1
115.4000015258789 77.5 -12.446000099182129 0 -1
115.5 91.5999984741211 -12.815999984741211 0 -1
122.5999984741211 84 -14.654999732971191 0 -1
113.80000305175781 83 -14.951000213623047 0 -1
116.30000305175781 87.69999694824219 -15.444000244140625 0 -1
115.5999984741211 80.4000015258789 -12.583999633789062 0 -1
117.4000015258789 82.0999984741211 -13.722000122070312 0 -1
120.9000015258789 77 -12.293000221252441 0 -1
116.69999694824219 83 -13.831000328063965 0 -1
120.0999984741211 94.5999984741211 -11.744999885559082 0 -1
116.80000305175781 86.19999694824219 -15.873000144958496 0 -1
110 81.19999694824219 -11.901000022888184 0 -1
119.5999984741211 76.0999984741211 -12.583999633789062 0 -1
119 89.5 -15.187000274658203 0 -1
113.30000305175781 82.0999984741211 -13.88700008392334 0 -1
122.19999694824219 84.5999984741211 -14.541999816894531 0 -1
116.5999984741211 78.80000305175781 -12.119000434875488 0 -1
118 82.5 -13.972000122070312 0 -1
122.80000305175781 94.30000305175781 -11.890999794006348 0 -1
115.19999694824219 85.4000015258789 -15.454999923706055 0 -1
118.9000015258789 82.30000305175781 -7.921999931335449 1 -1
119.19999694824219 91.5999984741211 -14.628000259399414 0 -1
117.0999984741211 89.80000305175781 -14.947999954223633 0 -1
114.5999984741211 77.0999984741211 -12.468999862670898 0 -1
112.80000305175781 88.69999694824219 -15.847000122070312 0 -1
112.19999694824219 79.5 -13.972000122070312 0 -1
117.5 80.5 -13.340999603271484 0 -1
115.4000015258789 90.69999694824219 -13.642000198364258 0 -1
113.5 81.5 -13.78600025177002 0 -1
112.5 88.5999984741211 -14.937999725341797 0 -1
120.4000015258789 83 12.11299991607666 2 -1
122.4000015258789 92.0999984741211 -12.82699966430664 0 -1
116.5 81.5999984741211 -13.168999671936035 0 -1
110.5 77.9000015258789 -12.892999649047852 0 -1
112.5999984741211 85.69999694824219 -15.90999984741211 0 -1
111.19999694824219 77.9000015258789 -13.475000381469727 0 -1
110.5 78 -12.984000205993652 0 -1
119.69999694824219 92.30000305175781 -13.342000007629395 0 -1
120 83.0999984741211 -13.722999572753906 0 -1
120.69999694824219 91 -13.913999557495117 0 -1
115.69999694824219 85.80000305175781 -14.869999885559082 0 -1
115 94.9000015258789 -8.892999649047852 0 -1
110.30000305175781 76.80000305175781 -11.994000434875488 0 -1
118.5999984741211 78.5 -13.706000328063965 0 -1
114.4000015258789 89.5 -14.979000091552734 0 -1
111.5999984741211 79.5 -13.876999855041504 0 -1
115.4000015258789 77.4000015258789 -11.913999557495117 0 -1
119.5999984741211 76.19999694824219 -12.430999755859375 0 -1
122.30000305175781 78 -13.246000289916992 0 -1
114 88.30000305175781 -15.447999954223633 0 -1
115.9000015258789 76.5999984741211 -12.413999557495117 0 -1
118.30000305175781 87.9000015258789 -15.338000297546387 0 -1
118.4000015258789 84.5999984741211 -13.967000007629395 0 -1
110.4000015258789 75.19999694824219 -11.99899959564209 0 -1
110.69999694824219 85.0999984741211 -14.958999633789062 0 -1
117.30000305175781 90.0999984741211 -14.885000228881836 0 -1
121.30000305175781 81.5 -13.989999771118164 0 -1
119.9000015258789 88.5 -14.289999961853027 0 -1
120.0999984741211 94.69999694824219 -11.800000190734863 0 -1
110.9000015258789 86.19999694824219 -16.889999389648438 0 -1
118.0999984741211 79.0999984741211 -13.579999923706055 0 -1
121 90 -14.364999771118164 0 -1
116.19999694824219 89 -14.902999877929688 0 -1
114.5 89.0999984741211 -14.996000289916992 0 -1
119.19999694824219 91.4000015258789 -14.692999839782715 0 -1
114.5999984741211 92.5 -11.98799991607666 0 -1
118 81.4000015258789 -13.949999809265137 0 -1
112.19999694824219 79.69999694824219 -13.98900032043457 0 -1
120.5999984741211 77.9000015258789 -13.319999694824219 0 -1
117.5 80.30000305175781 -13.305999755859375 0 -1
110.5999984741211 78 -12.916999816894531 0 -1
112.4000015258789 87.9000015258789 -15.895000457763672 0 -1
118.80000305175781 94.9000015258789 -9.748000144958496 0 -1
117 86.5999984741211 -14.942999839782715 0 -1
118.30000305175781 87.19999694824219 -14.918000221252441 0 -1
121.30000305175781 94.80000305175781 -11.281999588012695 0 -1
113.4000015258789 87.5 -15.425000190734863 0 -1
120.80000305175781 76.69999694824219 -12.5 0 -1
114.0999984741211 76.19999694824219 -13.54800033569336 0 -1
122.5 87.30000305175781 -15.145999908447266 0 -1
116.0999984741211 79.80000305175781 -11.906999588012695 0 -1
119.69999694824219 92.4000015258789 -13.232999801635742 0 -1
111.9000015258789 76 -14.4350004196167 0 -1
116.5999984741211 78.5999984741211 -11.897000312805176 0 -1
114.9000015258789 93.9000015258789 -9.699999809265137 0 -1
111.80000305175781 77.80000305175781 -13.732999801635742 0 -1
111.69999694824219 81.0999984741211 -13.732999801635742 0 -1
122.4000015258789 91.69999694824219 -13.189000129699707 0 -1
117.30000305175781 90 -14.911999702453613 0 -1
115.80000305175781 84.5 -14.857000350952148 0 -1
113.0999984741211 84.4000015258789 -15.711000442504883 0 -1
110.9000015258789 86.0999984741211 -16.768999099731445 0 -1
115.5 91.4000015258789 -12.857999801635742 0 -1
117.19999694824219 84.4000015258789 -14.116000175476074 0 -1
114 88.19999694824219 -15.557000160217285 0 -1
112.0999984741211 82.5 -13.869000434875488 0 -1
120.0999984741211 77.0999984741211 -12.211999893188477 0 -1
116.80000305175781 86.9000015258789 -15.3100004196167 0 -1
116.9000015258789 85 -14.942999839782715 0 -1
121 90.0999984741211 -14.378000259399414 0 -1
118.80000305175781 81.5999984741211 -14.065999984741211 0 -1
121.5 86.5999984741211 -14.241000175476074 0 -1
113.5999984741211 84.69999694824219 -15.92199993133545 0 -1
113.9000015258789 86.4000015258789 -15.965999603271484 0 -1
120.69999694824219 81.80000305175781 -13.935999870300293 0 -1
119.19999694824219 91.5 -13.930000305175781 0 -1
119.5 86.19999694824219 -13.99899959564209 0 -1
121.19999694824219 76.80000305175781 -12.390999794006348 0 -1
116.5999984741211 94.19999694824219 -9.880000114440918 0 -1
114.0999984741211 93.5999984741211 -10.944000244140625 0 -1
111.80000305175781 77.69999694824219 -13.684000015258789 0 -1
118.19999694824219 93.5999984741211 -10.711999893188477 0 -1
121.69999694824219 83.9000015258789 -14.621999740600586 0 -1
121.5999984741211 84.80000305175781 -13.62399959564209 0 -1
119.19999694824219 76.0999984741211 -12.220000267028809 0 -1
110.30000305175781 77 -11.994000434875488 0 -1
122.30000305175781 78.19999694824219 -13.246000289916992 0 -1
111.0999984741211 78.4000015258789 -13.708000183105469 0 -1
119.5999984741211 91.5999984741211 -13.654000282287598 0 -1
119.4000015258789 85.4000015258789 -13.880999565124512 0 -1
122.19999694824219 84.5 -14.494000434875488 0 -1
114.19999694824219 81.0999984741211 -13.732000350952148 0 -1
112.9000015258789 78 -13.8149995803833 0 -1
118.5999984741211 78.19999694824219 -13.807000160217285 0 -1
122.80000305175781 94.5999984741211 -11.855999946594238 0 -1
114.69999694824219 82 -13.413000106811523 0 -1
119.30000305175781 78.4000015258789 -13.038000106811523 0 -1
115.5999984741211 80.5 -12.526000022888184 0 -1
121.4000015258789 94 -12.013999938964844 0 -1
120.5999984741211 78 -13.369000434875488 0 -1
120.0999984741211 94.5 -11.800000190734863 0 -1
112 88 -15.854000091552734 0 -1
119.80000305175781 78.80000305175781 -12.970000267028809 0 -1
115.30000305175781 86.30000305175781 -15.895999908447266 0 -1
117.5999984741211 79.9000015258789 -13.366999626159668 0 -1
115.19999694824219 85.5 -15.446000099182129 0 -1
112.30000305175781 76.30000305175781 -13.987000465393066 0 -1
115.5 91.5 -12.795000076293945 0 -1
114.30000305175781 84.4000015258789 -15.399999618530273 0 -1
119 89.4000015258789 -15.164999961853027 0 -1
117.19999694824219 84.30000305175781 -14.053999900817871 0 -1
118 82.4000015258789 -14.154000282287598 0 -1
117.80000305175781 92.19999694824219 -12.949999809265137 0 -1
118.4000015258789 84.4000015258789 -14.232000350952148 0 -1
120.4000015258789 83.0999984741211 13.173999786376953 2 -1
120.30000305175781 79.80000305175781 -13.427000045776367 0 -1
122.5999984741211 84.4000015258789 -14.699999809265137 0 -1
116.80000305175781 86.80000305175781 -15.335000038146973 0 -1
116.9000015258789 85.0999984741211 -14.878000259399414 0 -1
118.9000015258789 82.4000015258789 -6.986999988555908 1 -1
117.69999694824219 77.0999984741211 -12.847999572753906 0 -1
121.5 86.69999694824219 -14.204999923706055 0 -1
121.19999694824219 94.4000015258789 -11.722999572753906 0 -1
118.5999984741211 78.0999984741211 -13.501999855041504 0 -1
115.5 76.0999984741211 -12.937000274658203 0 -1
112.5 88.69999694824219 -14.876999855041504 0 -1
114.80000305175781 89.5 -14.979000091552734 0 -1
117.0999984741211 89.69999694824219 -14.973999977111816 0 -1
120.9000015258789 90.30000305175781 -14.451000213623047 0 -1
112.69999694824219 89.30000305175781 -14.949000358581543 0 -1
119.5999984741211 91.69999694824219 -13.649999618530273 0 -1
122.80000305175781 94.69999694824219 -11.97599983215332 0 -1
115.19999694824219 85 -14.928999900817871 0 -1
112.5999984741211 85.5999984741211 -15.883000373840332 0 -1
121.80000305175781 78.5 -13.840999603271484 0 -1
117.5999984741211 80.0999984741211 -13.182999610900879 0 -1
112.30000305175781 76.4000015258789 -13.968999862670898 0 -1
115.4000015258789 91.0999984741211 -13.895999908447266 0 -1
114 88.4000015258789 -15.432999610900879 0 -1
113 81.19999694824219 -13.99899959564209 0 -1
113.9000015258789 86.0999984741211 -15.986000061035156 0 -1
120.69999694824219 91.0999984741211 -13.746000289916992 0 -1
117.69999694824219 90.4000015258789 -14.984000205993652 0 -1
110.69999694824219 85 -14.996000289916992 0 -1
119.4000015258789 85.5999984741211 -13.73799991607666 0 -1
116.19999694824219 88.9000015258789 -14.944999694824219 0 -1
119.9000015258789 88.4000015258789 -14.347000122070312 0 -1
114.4000015258789 89.4000015258789 -14.996000289916992 0 -1
111.5999984741211 79.4000015258789 -13.765999794006348 0 -1
122.30000305175781 78.0999984741211 -13.192000389099121 0 -1
114.19999694824219 81.19999694824219 -13.571000099182129 0 -1
121.19999694824219 77 -12.338000297546387 0 -1
116.5999984741211 94 -10.970000267028809 0 -1
115.9000015258789 76.69999694824219 -12.317999839782715 0 -1
118.69999694824219 89.5999984741211 -14.916999816894531 0 -1
116 80.5999984741211 -12.093000411987305 0 -1
119.0999984741211 82.5999984741211 -6.301000118255615 1 -1
118.0999984741211 79 -13.812999725341797 0 -1
122.9000015258789 85.9000015258789 -15.527999877929688 0 -1
111.4000015258789 87.5 -16.56100082397461 0 -1
121.30000305175781 81.5999984741211 -14.310999870300293 0 -1
115.80000305175781 84.69999694824219 -14.890000343322754 0 -1
114.5999984741211 92.30000305175781 -12.619999885559082 0 -1
115 94.5 -9.925999641418457 0 -1
110.5999984741211 78.0999984741211 -13.66100025177002 0 -1
110 78.5 -11.991000175476074 0 -1
117 86.69999694824219 -14.86400032043457 0 -1
120.9000015258789 90.19999694824219 -14.473999977111816 0 -1
113.0999984741211 85.5999984741211 -15.699000358581543 0 -1
115.0999984741211 90.69999694824219 -13.751999855041504 0 -1
120.5 89 -14.288999557495117 0 -1
110.69999694824219 85.5 -14.949999809265137 0 -1
117.69999694824219 77.30000305175781 -12.798999786376953 0 -1
114.5999984741211 92.4000015258789 -12.50100040435791 0 -1
118.30000305175781 76 -12.916000366210938 0 -1
118.4000015258789 79.30000305175781 -13.321999549865723 0 -1
118 81.30000305175781 -13.826000213623047 0 -1
111.4000015258789 87.0999984741211 -16.593000411987305 0 -1
118.80000305175781 81.19999694824219 -8.498000144958496 1 -1
119.5 86.9000015258789 -13.968999862670898 0 -1
116.30000305175781 87.5999984741211 -15.255000114440918 0 -1
111.69999694824219 81 -13.895000457763672 0 -1
121.80000305175781 78.4000015258789 -13.79699993133545 0 -1
113.5 80.30000305175781 -13.956000328063965 0 -1
120.9000015258789 76.9000015258789 -12.392000198364258 0 -1
114.5 89.5 -14.980999946594238 0 -1
120.30000305175781 93.0999984741211 -11.970999717712402 0 -1
120.80000305175781 76.5999984741211 -12.446000099182129 0 -1
114.80000305175781 89.19999694824219 -14.934000015258789 0 -1
122.5 87.4000015258789 -15.102999687194824 0 -1
121 89.9000015258789 -14.315999984741211 0 -1
122.19999694824219 84.69999694824219 -14.77299976348877 0 -1
116 80.69999694824219 -12.258999824523926 0 -1
116.80000305175781 87 -15.04800033569336 0 -1
111.9000015258789 75.80000305175781 -14.4350004196167 0 -1
114.0999984741211 93.30000305175781 -10.954000473022461 0 -1
121.4000015258789 94.19999694824219 -11.345999717712402 0 -1
113.19999694824219 88.4000015258789 -15.758000373840332 0 -1
116.69999694824219 83.0999984741211 -13.871000289916992 0 -1
116.4000015258789 93 -10.774999618530273 0 -1
120.5999984741211 93.4000015258789 -11.909000396728516 0 -1
113.4000015258789 87.0999984741211 -15.473999977111816 0 -1
113.30000305175781 82.19999694824219 -13.95199966430664 0 -1
118.69999694824219 89.69999694824219 -15.272000312805176 0 -1
123 89.30000305175781 -11.82699966430664 1 -1
122.9000015258789 86 -15.388999938964844 0 -1
118.5999984741211 85.30000305175781 -14.237000465393066 0 -1
120.69999694824219 81.9000015258789 -7.841000080108643 1 -1
113.80000305175781 83.4000015258789 -14.958999633789062 0 -1
116.5 81.5 -12.484000205993652 0 -1
120.4000015258789 83.80000305175781 -13.989999771118164 0 -1
115.5 91.30000305175781 -12.92300033569336 0 -1
115.5999984741211 80.80000305175781 -12.347999572753906 0 -1
117.69999694824219 77.19999694824219 -13.053000450134277 0 -1
121.69999694824219 83.80000305175781 -14.371999740600586 0 -1
121.5999984741211 84.9000015258789 -14.404999732971191 0 -1
119.0999984741211 82.5 -13.932000160217285 0 -1
119.5 86.80000305175781 -14.027000427246094 0 -1
112.80000305175781 91.5999984741211 -12.996999740600586 0 -1
118.5999984741211 78.30000305175781 -13.4399995803833 0 -1
120.0999984741211 77.5 -12.70300006866455 0 -1
115.69999694824219 85.69999694824219 -14.967000007629395 0 -1
110.0999984741211 82.4000015258789 -13.317999839782715 0 -1
119 89.80000305175781 -15.163999557495117 0 -1
120.9000015258789 76.80000305175781 -12.590999603271484 0 -1
121.4000015258789 94.0999984741211 -11.131999969482422 0 -1
116.4000015258789 79.69999694824219 -12.361000061035156 0 -1
110.30000305175781 78.69999694824219 -12.994000434875488 0 -1
113.69999694824219 80.5999984741211 -13.437999725341797 0 -1
122.30000305175781 78.30000305175781 -13.307000160217285 0 -1
119.5999984741211 76.30000305175781 -12.496000289916992 0 -1
115.30000305175781 86.19999694824219 -15.67300033569336 0 -1
116.5 90.69999694824219 -13.765000343322754 0 -1
120 83 -4.495999813079834 1 -1
116.69999694824219 83.30000305175781 -13.871000289916992 0 -1
120.5999984741211 94 -11.88700008392334 0 -1
119.19999694824219 91.80000305175781 -13.602999687194824 0 -1
122.80000305175781 94.5 -11.97599983215332 0 -1
114.0999984741211 93.19999694824219 -11.630999565124512 0 -1
113.19999694824219 88.5 -15.730999946594238 0 -1
118.30000305175781 87.0999984741211 -15.019000053405762 0 -1
118.80000305175781 94.5 -10.96500015258789 0 -1
113 81.4000015258789 -13.99899959564209 0 -1
115.0999984741211 90.80000305175781 -13.642999649047852 0 -1
117.69999694824219 90.5999984741211 -14.560999870300293 0 -1
111.9000015258789 75.9000015258789 -14.435999870300293 0 -1
116.30000305175781 88 -14.991999626159668 0 -1
116.0999984741211 79.4000015258789 -11.940999984741211 0 -1
113.30000305175781 82.30000305175781 -13.947999954223633 0 -1
118 82.30000305175781 -13.996000289916992 0 -1
120.0999984741211 94.9000015258789 -10.98799991607666 0 -1
115.4000015258789 77.80000305175781 -11.90999984741211 0 -1
117.5 80.19999694824219 -13.359999656677246 0 -1
118.9000015258789 82.5 -6.519999980926514 1 -1
112.4000015258789 88 -15.550999641418457 0 -1
111.19999694824219 78 -13.454000473022461 0 -1
117.0999984741211 89.5999984741211 -14.946000099182129 0 -1
116.5999984741211 78.5 -11.722999572753906 0 -1
119.9000015258789 88.80000305175781 -9.430000305175781 1 -1
110.9000015258789 86.5 -16.788999557495117 0 -1
115.19999694824219 85.0999984741211 -14.979999542236328 0 -1
119.80000305175781 77.9000015258789 -12.71500015258789 0 -1
112.5 88.80000305175781 -14.748000144958496 0 -1
119.69999694824219 93 -12.980999946594238 0 -1
120.69999694824219 80.9000015258789 -13.994999885559082 0 -1
115 94.69999694824219 -9.925999641418457 0 -1
114.30000305175781 84 -14.986000061035156 0 -1
119.30000305175781 78.30000305175781 -12.993000030517578 0 -1
119.5999984741211 76.4000015258789 -12.364999771118164 0 -1
116.5 81.80000305175781 -13.168999671936035 0 -1
122.4000015258789 91.80000305175781 -13.470999717712402 0 -1
119.19999694824219 91.9000015258789 -13.60200023651123 0 -1
121.30000305175781 94.9000015258789 -11.463000297546387 0 -1
117.30000305175781 89.9000015258789 -14.840999603271484 0 -1
117.5999984741211 80 -13.39799976348877 0 -1
112.80000305175781 91.4000015258789 -13.807999610900879 0 -1
122.5999984741211 84.30000305175781 -14.812000274658203 0 -1
114.9000015258789 94 -9.881999969482422 0 -1
115.4000015258789 77.69999694824219 -12.348999977111816 0 -1
117.69999694824219 90.5 -14.880999565124512 0 -1
118.0999984741211 78.9000015258789 -13.704999923706055 0 -1
112 87.9000015258789 -15.711999893188477 0 -1
123 89.0999984741211 -11.82699966430664 1 -1
117.4000015258789 82 -13.652999877929688 0 -1
122.9000015258789 85.80000305175781 -15.42300033569336 0 -1
116.19999694824219 88.80000305175781 -14.890999794006348 0 -1
119.19999694824219 76.5 -13.194000244140625 0 -1
113.80000305175781 83.19999694824219 -14.977999687194824 0 -1
114.4000015258789 89.30000305175781 -14.942000389099121 0 -1
117 87.30000305175781 -14.812000274658203 0 -1
111.0999984741211 78.80000305175781 -13.987000465393066 0 -1
118.19999694824219 93.5 -10.949000358581543 0 -1
115.9000015258789 76.4000015258789 -12.553000450134277 0 -1
112.0999984741211 82.5999984741211 -13.883999824523926 0 -1
119.5 87 -14.392999649047852 0 -1
114.5999984741211 77 -12.520999908447266 0 -1
113.5999984741211 84.5999984741211 -15.902000427246094 0 -1
114.5999984741211 92.19999694824219 -12.50100040435791 0 -1
116.4000015258789 92.80000305175781 -11.175000190734863 0 -1
118.4000015258789 84.30000305175781 -14.23799991607666 0 -1
110.9000015258789 86.4000015258789 -16.875999450683594 0 -1
116.9000015258789 85.19999694824219 -14.942999839782715 0 -1
110.69999694824219 85.4000015258789 -14.984000205993652 0 -1
117.19999694824219 85.69999694824219 -14.979000091552734 0 -1
113.69999694824219 80.4000015258789 -13.555000305175781 0 -1
111.5999984741211 79.80000305175781 -13.890999794006348 0 -1
115.80000305175781 84.80000305175781 -14.937000274658203 0 -1
113.0999984741211 85.69999694824219 -15.675999641418457 0 -1
118.80000305175781 81.30000305175781 -8.53600025177002 1 -1
115.9000015258789 76.30000305175781 -12.597000122070312 0 -1
118.5999984741211 85.5 -14.184000015258789 0 -1
120.5999984741211 78.5999984741211 -13.470000267028809 0 -1
111.80000305175781 77.5999984741211 -13.652000427246094 0 -1
111.69999694824219 80.9000015258789 -14.284000396728516 0 -1
120.30000305175781 78.9000015258789 -13.329000473022461 0 -1
122.4000015258789 91.9000015258789 -12.82699966430664 0 -1
112.5 87.30000305175781 -15.817999839782715 0 -1
112.5999984741211 82.4000015258789 -13.569000244140625 0 -1
113.5 80.19999694824219 -13.965999603271484 0 -1
117.30000305175781 89.80000305175781 -14.90999984741211 0 -1
119.69999694824219 93.0999984741211 -12.918999671936035 0 -1
112.80000305175781 91.5 -13.736000061035156 0 -1
110.5 79.69999694824219 -12.998000144958496 0 -1
118 81.19999694824219 -13.947999954223633 0 -1
115 94.5999984741211 -9.753000259399414 0 -1
120.69999694824219 90.19999694824219 -9.727999687194824 1 -1
119.69999694824219 75.5999984741211 -12.791000366210938 0 -1
110.5999984741211 78.19999694824219 -13.744000434875488 0 -1
118.30000305175781 75.80000305175781 -12.774999618530273 0 -1
116.5 81.9000015258789 -12.875 0 -1
116.4000015258789 79.5 -12.361000061035156 0 -1
114.80000305175781 89.0999984741211 -14.968000411987305 0 -1
122.5 87.5 -14.91100025177002 0 -1
117.80000305175781 92.30000305175781 -11.960000038146973 0 -1
110.4000015258789 74.30000305175781 -10.532999992370605 0 -1
114.0999984741211 93.4000015258789 -10.85099983215332 0 -1
121.19999694824219 94.5 -11.526000022888184 0 -1
116.4000015258789 92.9000015258789 -11.98799991607666 0 -1
114.69999694824219 82.4000015258789 -14.194000244140625 0 -1
119 89.69999694824219 -15.192000389099121 0 -1
119.19999694824219 76.30000305175781 -12.220000267028809 0 -1
118.19999694824219 93.4000015258789 -10.918999671936035 0 -1
120.5 88.0999984741211 -13.522000312805176 0 -1
119.30000305175781 78.0999984741211 -12.765000343322754 0 -1
111.0999984741211 78.5999984741211 -13.977999687194824 0 -1
119.5999984741211 91.80000305175781 -13.571000099182129 0 -1
111.9000015258789 75.69999694824219 -14.38599967956543 0 -1
121.80000305175781 78.30000305175781 -13.840999603271484 0 -1
112.69999694824219 89.19999694824219 -14.947999954223633 0 -1
117.80000305175781 92.4000015258789 -12.949999809265137 0 -1
113.9000015258789 86.19999694824219 -15.991000175476074 0 -1
122.19999694824219 84.30000305175781 -14.470000267028809 0 -1
113.5999984741211 84.5 -15.845999717712402 0 -1
120.5999984741211 78.69999694824219 -13.48900032043457 0 -1
114.69999694824219 82.19999694824219 -14 0 -1
116.80000305175781 86.5999984741211 -15.335000038146973 0 -1
116.9000015258789 85.30000305175781 -14.604999542236328 0 -1
115.5 75.80000305175781 -12.934000015258789 0 -1
115.5999984741211 80.69999694824219 -12.427000045776367 0 -1
117.5999984741211 80.19999694824219 -13.305999755859375 0 -1
113.4000015258789 87.19999694824219 -15.45199966430664 0 -1
120.9000015258789 91.0999984741211 -9.682999610900879 1 -1
113.69999694824219 80.5 -13.468000411987305 0 -1
112.9000015258789 77.9000015258789 -13.758000373840332 0 -1
110.30000305175781 78.5999984741211 -12.986000061035156 0 -1
115.30000305175781 86.0999984741211 -15.678999900817871 0 -1
117.5 80 -12.980999946594238 0 -1
117.69999694824219 90.19999694824219 -14.753000259399414 0 -1
121.4000015258789 93.30000305175781 -12.892999649047852 0 -1
116.5999984741211 93.9000015258789 -10.767999649047852 0 -1
113 81.30000305175781 -13.781999588012695 0 -1
118.5999984741211 85.4000015258789 -13.961000442504883 0 -1
120.30000305175781 92.19999694824219 -13.039999961853027 0 -1
116.69999694824219 83.19999694824219 -13.85200023651123 0 -1
112.69999694824219 89.0999984741211 -14.831999778747559 0 -1
119.4000015258789 85.69999694824219 -13.666999816894531 0 -1
121.5 86.30000305175781 -14.340999603271484 0 -1
116.4000015258789 79.5999984741211 -12.163000106811523 0 -1
112.30000305175781 76.5 -13.987000465393066 0 -1
112.19999694824219 79.80000305175781 -13.973999977111816 0 -1
116 80.80000305175781 -12.22700023651123 0 -1
110.5 79.80000305175781 -12.968999862670898 0 -1
119.69999694824219 75.69999694824219 -12.741999626159668 0 -1
118.80000305175781 94.5999984741211 -10.666000366210938 0 -1
115.4000015258789 91 -13.996000289916992 0 -1
114.19999694824219 81.30000305175781 -13.645999908447266 0 -1
121.19999694824219 77.0999984741211 -12.33899974822998 0 -1
118.30000305175781 75.9000015258789 -12.74899959564209 0 -1
120.9000015258789 77.80000305175781 -13.569999694824219 0 -1
111.4000015258789 87.19999694824219 -16.56800079345703 0 -1
117.69999694824219 76.9000015258789 -13.062000274658203 0 -1
119.19999694824219 91.69999694824219 -14.65999984741211 0 -1
117.0999984741211 88.5 -14.925999641418457 0 -1
114.5999984741211 76.80000305175781 -12.593999862670898 0 -1
112.0999984741211 83.30000305175781 -13.991000175476074 0 -1
111.30000305175781 76.9000015258789 -12.907999992370605 0 -1
120.69999694824219 81 -13.979000091552734 0 -1
114.9000015258789 94.19999694824219 -9.970999717712402 0 -1
112.4000015258789 88.0999984741211 -15.607000350952148 0 -1
119.5999984741211 91.9000015258789 -13.482000350952148 0 -1
120.30000305175781 79.0999984741211 -13.37600040435791 0 -1
116.0999984741211 79.5 -11.866999626159668 0 -1
122.80000305175781 94.9000015258789 -11.33899974822998 0 -1
122.30000305175781 78.4000015258789 -13.11299991607666 0 -1
110.0999984741211 82.19999694824219 -12.62399959564209 0 -1
