VERSION .7
FIELDS x y z label object
SIZE 4 4 4 4 4
TYPE F F F I I
COUNT 1 1 1 1 1
WIDTH 865
HEIGHT 1
POINTS 865
VIEWPOINT 0 0 0 1 0 0 0
DATA ascii
115.80000305175781 90.4000015258789 -15.968999862670898 0 -1
113.0999984741211 88.4000015258789 -15.638999938964844 0 -1
112.0999984741211 80.0999984741211 -13.751999855041504 0 -1
111.5999984741211 91.9000015258789 -15.484999656677246 0 -1
120.80000305175781 79.4000015258789 -12.982000350952148 0 -1
118.5999984741211 77.0999984741211 -12.836999893188477 0 -1
112.19999694824219 77.30000305175781 -14.718000411987305 0 -1
117.19999694824219 85.69999694824219 -13.687999725341797 0 -1
117.5999984741211 80.5 -12.654000282287598 0 -1
113.9000015258789 83.30000305175781 -13.506999969482422 0 -1
115.5 77.69999694824219 -12.576000213623047 0 -1
111 77.9000015258789 -12.831000328063965 0 -1
121.80000305175781 79.5 -13.144000053405762 0 -1
119.9000015258789 86.19999694824219 -13.925999641418457 0 -1
122.9000015258789 76.19999694824219 -11.52299976348877 0 -1
112.5 82.19999694824219 -13.982000350952148 0 -1
113.19999694824219 90.80000305175781 -16.677000045776367 0 -1
115.9000015258789 78 -12.402999877929688 0 -1
118.30000305175781 75.69999694824219 -12.494999885559082 0 -1
111.0999984741211 92.19999694824219 -16.099000930786133 0 -1
110.30000305175781 76.9000015258789 -11.774999618530273 0 -1
117.9000015258789 92.0999984741211 -14.847999572753906 0 -1
121.80000305175781 94.9000015258789 -14.821999549865723 0 -1
110.5 76.4000015258789 -11.798999786376953 0 -1
122.0999984741211 78.30000305175781 -12.420999526977539 0 -1
121.5 89.30000305175781 -15.494000434875488 0 -1
120.4000015258789 93.0999984741211 -15.817999839782715 0 -1
115.19999694824219 85.19999694824219 -15.493000030517578 0 -1
111.0999984741211 76.80000305175781 -11.833000183105469 0 -1
112.19999694824219 90.5999984741211 -15.88700008392334 0 -1
110.19999694824219 83.30000305175781 -12.918000221252441 0 -1
118.19999694824219 80.5 -12.904999732971191 0 -1
114 76.9000015258789 -14.913999557495117 0 -1
111.19999694824219 78.5999984741211 -13.937000274658203 0 -1
112.5999984741211 93.5999984741211 -14.28600025177002 0 -1
116.0999984741211 76.9000015258789 -12.123000144958496 0 -1
116 80.19999694824219 -11.871999740600586 0 -1
113 79.4000015258789 -14.5649995803833 0 -1
111.9000015258789 80.80000305175781 -13.977999687194824 0 -1
119.69999694824219 77.0999984741211 -12.425999641418457 0 -1
113.30000305175781 77.9000015258789 -14.616000175476074 0 -1
118.4000015258789 76.4000015258789 -12.48900032043457 0 -1
112.4000015258789 91.9000015258789 -15.873000144958496 0 -1
116.69999694824219 92.5999984741211 -14.984000205993652 0 -1
112.69999694824219 76.80000305175781 -14.78600025177002 0 -1
111.69999694824219 93.30000305175781 -15.302000045776367 0 -1
121.19999694824219 91.5 -15.805000305175781 0 -1
117.5 92 -15.487000465393066 0 -1
110.9000015258789 75.0999984741211 -11.795000076293945 0 -1
116.4000015258789 84.4000015258789 -13.79800033569336 0 -1
118 82 -13.788999557495117 0 -1
118.0999984741211 94.9000015258789 -13.996000289916992 0 -1
111.30000305175781 85 -14.815999984741211 0 -1
119.19999694824219 80.30000305175781 -13.336999893188477 0 -1
112.5 82.30000305175781 -13.99899959564209 0 -1
119.5999984741211 79.9000015258789 -13.085000038146973 0 -1
118.5 89.5999984741211 -14.937000274658203 0 -1
123 80.69999694824219 -13.479999542236328 0 -1
122.80000305175781 84.5999984741211 -12.666999816894531 1 -1
121.69999694824219 90.5 -15.404000282287598 0 -1
121.30000305175781 78.9000015258789 -13.295000076293945 0 -1
110.69999694824219 79 -12.887999534606934 0 -1
121.80000305175781 79.5999984741211 -13.569999694824219 0 -1
120.5999984741211 78.69999694824219 -12.781999588012695 0 -1
114.19999694824219 82.0999984741211 -13.697999954223633 0 -1
121.9000015258789 81 -14.1850004196167 0 -1
117.0999984741211 92.0999984741211 -15.442999839782715 0 -1
118.30000305175781 75.5999984741211 -12.538999557495117 0 -1
113.5999984741211 82.5 -13.815999984741211 0 -1
119.0999984741211 79.5 -12.85099983215332 0 -1
111.0999984741211 76.9000015258789 -11.815999984741211 0 -1
111.5999984741211 90.4000015258789 -15.53600025177002 0 -1
120.80000305175781 92.69999694824219 -15.800000190734863 0 -1
120 87.9000015258789 -14.163999557495117 0 -1
120.0999984741211 84.4000015258789 -8.076000213623047 1 -1
111.4000015258789 89.9000015258789 -15.607000350952148 0 -1
121.30000305175781 94.30000305175781 -13.67300033569336 0 -1
119.69999694824219 90.4000015258789 -16.03499984741211 0 -1
114.4000015258789 82.9000015258789 -13.991999626159668 0 -1
115 79.0999984741211 -12.036999702453613 0 -1
117.69999694824219 82.80000305175781 -13.574999809265137 0 -1
112.4000015258789 91.80000305175781 -15.91100025177002 0 -1
112.19999694824219 77.0999984741211 -14.718000411987305 0 -1
121.4000015258789 84.4000015258789 -14.611000061035156 0 -1
116.80000305175781 94 -13.991000175476074 0 -1
115 94.4000015258789 -12.692999839782715 0 -1
111.19999694824219 78.69999694824219 -13.791999816894531 0 -1
117 81.80000305175781 -12.493000030517578 0 -1
116.0999984741211 76.80000305175781 -12.87600040435791 0 -1
112.30000305175781 89.0999984741211 -15.732000350952148 0 -1
116.19999694824219 91.69999694824219 -14.916999816894531 0 -1
114 76.69999694824219 -14.927000045776367 0 -1
113.9000015258789 82.5999984741211 -13.97599983215332 0 -1
119.5999984741211 80.0999984741211 -13.043999671936035 0 -1
120.4000015258789 79.80000305175781 -12.956999778747559 0 -1
110.30000305175781 77.19999694824219 -11.928999900817871 0 -1
112.5999984741211 76.19999694824219 -14.760000228881836 0 -1
113.19999694824219 91 -16.677000045776367 0 -1
115.9000015258789 78.19999694824219 -12.402999877929688 0 -1
116.69999694824219 77.30000305175781 -12.786999702453613 0 -1
120.5 82 -13.96500015258789 0 -1
118.5 89.69999694824219 -14.979999542236328 0 -1
113.0999984741211 88.19999694824219 -15.638999938964844 0 -1
122.69999694824219 90.80000305175781 -15.175000190734863 0 -1
116.0999984741211 92.19999694824219 -14.75100040435791 0 -1
118 82.0999984741211 -13.748000144958496 0 -1
118.4000015258789 76.30000305175781 -12.456000328063965 0 -1
110.69999694824219 79.0999984741211 -12.925999641418457 0 -1
121.0999984741211 94 -15.498000144958496 0 -1
115.30000305175781 88.19999694824219 -15.996000289916992 0 -1
120.5999984741211 78.5999984741211 -13.48900032043457 0 -1
117.5999984741211 80.30000305175781 -12.654000282287598 0 -1
119.30000305175781 86.69999694824219 -14.579999923706055 0 -1
122.0999984741211 78.0999984741211 -12.59000015258789 0 -1
112.69999694824219 77.30000305175781 -14.756999969482422 0 -1
114.5999984741211 89.4000015258789 -16.304000854492188 0 -1
113.19999694824219 75.5999984741211 -14.89900016784668 0 -1
121.5999984741211 76.19999694824219 -11.769000053405762 0 -1
110.9000015258789 90.4000015258789 -15.902000427246094 0 -1
113.5 86.9000015258789 -15.383999824523926 0 -1
112.19999694824219 90.4000015258789 -15.973999977111816 0 -1
111.5999984741211 77.0999984741211 -14.288000106811523 0 -1
118.5999984741211 86.30000305175781 -14.786999702453613 0 -1
118.19999694824219 83.5 -9.331000328063965 1 -1
111.80000305175781 86.0999984741211 -15.479999542236328 0 -1
113.80000305175781 89.80000305175781 -16.29599952697754 0 -1
112.0999984741211 79.9000015258789 -13.751999855041504 0 -1
121.69999694824219 90.5999984741211 -15.498000144958496 0 -1
120.4000015258789 85.19999694824219 24.104999542236328 2 -1
114.9000015258789 86 -15.458000183105469 0 -1
117 81 -12.303000450134277 0 -1
114.69999694824219 82.5999984741211 -13.609999656677246 0 -1
117.5 91.30000305175781 -15.946999549865723 0 -1
121.0999984741211 76.5999984741211 -11.982000350952148 0 -1
115.5 93 -13.753000259399414 0 -1
110.80000305175781 86 -15.555999755859375 0 -1
116.5 90.30000305175781 -15.954000473022461 0 -1
119.69999694824219 77.30000305175781 -12.314000129699707 0 -1
114.0999984741211 81.5 -13.70300006866455 0 -1
115.5999984741211 89.19999694824219 -15.965999603271484 0 -1
115.30000305175781 88.30000305175781 -15.87600040435791 0 -1
110.5999984741211 83.0999984741211 -12.968000411987305 0 -1
112.9000015258789 82.4000015258789 -13.97700023651123 0 -1
112.80000305175781 81.0999984741211 -14.605999946594238 0 -1
119.4000015258789 93.30000305175781 -14.491000175476074 0 -1
112.69999694824219 92.5999984741211 -15.600000381469727 0 -1
116.30000305175781 86.4000015258789 -14.28600025177002 0 -1
121.30000305175781 94.5999984741211 -15.274999618530273 0 -1
115.5 77.5999984741211 -12.968000411987305 0 -1
116.69999694824219 77.0999984741211 -12.98900032043457 0 -1
117.80000305175781 84.80000305175781 -14.423999786376953 0 -1
121.0999984741211 93.9000015258789 -14.168000221252441 0 -1
120.30000305175781 94.4000015258789 -13.562000274658203 0 -1
119.30000305175781 86.5999984741211 -14.458000183105469 0 -1
116.0999984741211 92.4000015258789 -14.75100040435791 0 -1
116.4000015258789 84.30000305175781 -13.54800033569336 0 -1
113.69999694824219 84.4000015258789 -14.852999687194824 0 -1
115.5999984741211 89.0999984741211 -15.956000328063965 0 -1
110.19999694824219 83.0999984741211 -12.866000175476074 0 -1
120.5999984741211 94 -15.227999687194824 0 -1
120.9000015258789 83.19999694824219 -13.494999885559082 0 -1
115.0999984741211 89 -16.816999435424805 0 -1
120.5999984741211 78.80000305175781 -12.939000129699707 0 -1
119.9000015258789 86.80000305175781 -13.961999893188477 0 -1
117.30000305175781 87 -14.319000244140625 0 -1
117 94.30000305175781 -12.744000434875488 0 -1
117.19999694824219 85.30000305175781 -13.626999855041504 0 -1
118.19999694824219 80.4000015258789 -12.527999877929688 0 -1
115.4000015258789 83.4000015258789 -13.1850004196167 0 -1
117.4000015258789 92.4000015258789 -14.96399974822998 0 -1
117.69999694824219 82.0999984741211 -13.86400032043457 0 -1
112.5999984741211 92.69999694824219 -15.482999801635742 0 -1
112.30000305175781 89.30000305175781 -15.718000411987305 0 -1
122.0999984741211 78.19999694824219 -12.805999755859375 0 -1
110.4000015258789 81.0999984741211 -11.5 0 -1
117.0999984741211 75.80000305175781 -13.118000030517578 0 -1
110.5999984741211 82.80000305175781 -12.949000358581543 0 -1
116.9000015258789 94 -13.826000213623047 0 -1
114.4000015258789 85 -14.937000274658203 0 -1
111.5 78.69999694824219 -13.871000289916992 0 -1
115.80000305175781 90.30000305175781 -15.979999542236328 0 -1
118.4000015258789 87.5999984741211 -13.880000114440918 0 -1
114.80000305175781 87.0999984741211 -15.946000099182129 0 -1
119.69999694824219 90.5999984741211 -16.263999938964844 0 -1
114.0999984741211 94.80000305175781 -12.97599983215332 0 -1
113.4000015258789 81.5 -14.319000244140625 0 -1
111.30000305175781 85.0999984741211 -14.930999755859375 0 -1
119.19999694824219 80.19999694824219 -13.267999649047852 0 -1
114.69999694824219 82.5 -13.590999603271484 0 -1
117.5 76 -12.583000183105469 0 -1
121.0999984741211 76.5 -11.885000228881836 0 -1
110.5 76.30000305175781 -11.696999549865723 0 -1
113.5999984741211 82.5999984741211 -13.982000350952148 0 -1
116.5 90.19999694824219 -15.97700023651123 0 -1
116.0999984741211 77 -12.87600040435791 0 -1
119.69999694824219 77.19999694824219 -12.388999938964844 0 -1
114.5 85.5999984741211 -14.993000030517578 0 -1
116.19999694824219 91.9000015258789 -14.868000030517578 0 -1
115.80000305175781 77 -12.336999893188477 0 -1
111.19999694824219 79 -12.954000473022461 0 -1
111.69999694824219 93.4000015258789 -15.262999534606934 0 -1
117.9000015258789 91.19999694824219 -15.965999603271484 0 -1
118.5999984741211 77.5 -12.90999984741211 0 -1
112.5 82.4000015258789 -13.972999572753906 0 -1
119.69999694824219 90.5 -16.333999633789062 0 -1
110.80000305175781 84 -13.791000366210938 0 -1
119.80000305175781 78.80000305175781 -12.055999755859375 0 -1
121.9000015258789 80.9000015258789 -14.437999725341797 0 -1
115 79 -12.157999992370605 0 -1
118.30000305175781 88.30000305175781 -14.579999923706055 0 -1
118.0999984741211 94.5 -13.831999778747559 0 -1
117.0999984741211 75.9000015258789 -13.227999687194824 0 -1
119.0999984741211 79.4000015258789 -12.23799991607666 0 -1
114.9000015258789 85.80000305175781 -15.470999717712402 0 -1
114 92.0999984741211 -14.902999877929688 0 -1
122.80000305175781 84.5 -9.154999732971191 1 -1
111.0999984741211 76.69999694824219 -11.815999984741211 0 -1
112 78.9000015258789 -13.57800006866455 0 -1
119.5999984741211 80 -13.097000122070312 0 -1
110.30000305175781 77.30000305175781 -11.994999885559082 0 -1
118.5 89.5 -14.937000274658203 0 -1
114.4000015258789 85.0999984741211 -14.956000328063965 0 -1
111.5 78.5999984741211 -13.866000175476074 0 -1
121.9000015258789 81.4000015258789 -14.213000297546387 0 -1
111.9000015258789 80.69999694824219 -13.963000297546387 0 -1
118.5999984741211 86.69999694824219 -14.689000129699707 0 -1
113.0999984741211 88.30000305175781 -15.616999626159668 0 -1
122.69999694824219 90.9000015258789 -15.182000160217285 0 -1
116.19999694824219 91.80000305175781 -14.96500015258789 0 -1
116.0999984741211 92.30000305175781 -14.944000244140625 0 -1
114.30000305175781 79.69999694824219 -12.892999649047852 0 -1
120.80000305175781 79.5 -13.074999809265137 0 -1
115.4000015258789 83 -13.406000137329102 0 -1
118.4000015258789 87.5 -14.020000457763672 0 -1
115.69999694824219 90.19999694824219 -16.849000930786133 0 -1
115.9000015258789 78.0999984741211 -12.359999656677246 0 -1
121.5999984741211 93.30000305175781 -15.1899995803833 0 -1
113.5 87 -15.395000457763672 0 -1
120.0999984741211 84.30000305175781 -8.15999984741211 1 -1
113 79.80000305175781 -13.586999893188477 0 -1
110.5 76.5 -11.696999549865723 0 -1
118.19999694824219 83.4000015258789 -14.180999755859375 0 -1
111.19999694824219 79.0999984741211 -12.968999862670898 0 -1
110.9000015258789 74.4000015258789 -11.753999710083008 0 -1
122.5 91.19999694824219 -15.064000129699707 0 -1
113.19999694824219 90.9000015258789 -16.631000518798828 0 -1
112.69999694824219 77.19999694824219 -14.704000473022461 0 -1
122.0999984741211 78 -12.52299976348877 0 -1
114.5999984741211 89.5 -16.326000213623047 0 -1
113.80000305175781 89.69999694824219 -16.268999099731445 0 -1
118.80000305175781 88.5 -14.402999877929688 0 -1
121 86.0999984741211 -13.937000274658203 0 -1
122.9000015258789 85.19999694824219 7.480000019073486 2 -1
120.4000015258789 93 -15.848999977111816 0 -1
117.4000015258789 92.30000305175781 -14.87399959564209 0 -1
117.0999984741211 91.19999694824219 -15.71399974822998 0 -1
119 86.80000305175781 -14.493000030517578 0 -1
121.80000305175781 95 5.1479997634887695 3 -1
110.9000015258789 89.80000305175781 -15.494999885559082 0 -1
118.30000305175781 88.19999694824219 -14.425000190734863 0 -1
120.5999984741211 94.19999694824219 -15.131999969482422 0 -1
117 80.9000015258789 -12.279999732971191 0 -1
120.80000305175781 79.5999984741211 -12.95199966430664 0 -1
116.5999984741211 78.4000015258789 -13.062000274658203 0 -1
115 79.19999694824219 -11.92300033569336 0 -1
121.30000305175781 79.30000305175781 -13.25100040435791 0 -1
115.0999984741211 88.69999694824219 -15.984999656677246 0 -1
116 80.30000305175781 -11.387999534606934 0 -1
114.30000305175781 79.80000305175781 -12.826000213623047 0 -1
115.80000305175781 76.80000305175781 -12.479000091552734 0 -1
110.4000015258789 80.9000015258789 -11.868000030517578 0 -1
112.80000305175781 81 -14.559000015258789 0 -1
111.80000305175781 86.5 -15.588000297546387 0 -1
116.69999694824219 92.5 -14.994999885559082 0 -1
111.9000015258789 80.5999984741211 -13.925000190734863 0 -1
116.9000015258789 94.19999694824219 -12.824000358581543 0 -1
114.19999694824219 85.80000305175781 -15.77400016784668 0 -1
116.30000305175781 86.5 -14.279000282287598 0 -1
121.5999984741211 93.19999694824219 -15.217000007629395 0 -1
110.30000305175781 77.0999984741211 -11.994999885559082 0 -1
115.5 92.9000015258789 -13.901000022888184 0 -1
111.19999694824219 84.0999984741211 -13.765000343322754 0 -1
111.4000015258789 90.30000305175781 -15.362000465393066 0 -1
110.80000305175781 78.9000015258789 -12.960000038146973 0 -1
121.30000305175781 94.69999694824219 -14.913000106811523 0 -1
113 79.69999694824219 -14.204000473022461 0 -1
117.30000305175781 86.9000015258789 -13.994000434875488 0 -1
117.19999694824219 85.4000015258789 -13.618000030517578 0 -1
112.0999984741211 80.30000305175781 -13.885000228881836 0 -1
120.80000305175781 92.80000305175781 -15.730999946594238 0 -1
120 88 -14.190999984741211 0 -1
116.0999984741211 92.5 -14.854000091552734 0 -1
116.4000015258789 84.19999694824219 -13.503999710083008 0 -1
112 79.30000305175781 -13.553000450134277 0 -1
121.4000015258789 84 -11.947999954223633 1 -1
112.69999694824219 92.5 -15.640000343322754 0 -1
110.19999694824219 83 -12.949000358581543 0 -1
115.69999694824219 90.5 -16.58300018310547 0 -1
110.5999984741211 81.69999694824219 -12.895999908447266 0 -1
120.30000305175781 76.80000305175781 -11.833999633789062 0 -1
120.9000015258789 83.30000305175781 -13.61400032043457 0 -1
115.5 77.5 -13.460000038146973 0 -1
119.9000015258789 86.9000015258789 -13.925000190734863 0 -1
117.0999984741211 91.30000305175781 -15.657999992370605 0 -1
114.0999984741211 81.5999984741211 -13.61299991607666 0 -1
119.69999694824219 77.4000015258789 -12.480999946594238 0 -1
121.80000305175781 79.69999694824219 -13.711999893188477 0 -1
120.30000305175781 94.30000305175781 -13.692000389099121 0 -1
111 79.80000305175781 -12.633999824523926 0 -1
112.4000015258789 90.4000015258789 -15.973999977111816 0 -1
116.80000305175781 93.4000015258789 -13.968999862670898 0 -1
120.5999984741211 94.0999984741211 -15.161999702453613 0 -1
113.5999984741211 82.19999694824219 -13.465999603271484 0 -1
110.5999984741211 82.69999694824219 -12.97599983215332 0 -1
117 94.4000015258789 -12.97599983215332 0 -1
111.5 78.80000305175781 -13.965999603271484 0 -1
111.5999984741211 90.5 -15.517000198364258 0 -1
111.19999694824219 84.19999694824219 -13.949999809265137 0 -1
119.69999694824219 90.69999694824219 -16.40399932861328 0 -1
112.9000015258789 82.30000305175781 -13.944999694824219 0 -1
114 76.5999984741211 -14.779000282287598 0 -1
118 82.19999694824219 -13.788999557495117 0 -1
115.9000015258789 78.30000305175781 -12.27400016784668 0 -1
120.5 82.0999984741211 -13.788999557495117 0 -1
115.0999984741211 88.5999984741211 -15.906999588012695 0 -1
115 94.5 -12.579999923706055 0 -1
114.5 85.69999694824219 -14.970999717712402 0 -1
113.69999694824219 84.30000305175781 -14.795999526977539 0 -1
118.4000015258789 76.19999694824219 -12.02299976348877 0 -1
113.19999694824219 91.0999984741211 -16.760000228881836 0 -1
118.80000305175781 88.69999694824219 -14.5600004196167 0 -1
122.80000305175781 84.9000015258789 -8.835000038146973 1 -1
111.69999694824219 93.5 -15.277000427246094 0 -1
121.69999694824219 90.19999694824219 -15.472000122070312 0 -1
120.30000305175781 76.9000015258789 -11.729000091552734 0 -1
113.0999984741211 88.0999984741211 -15.70300006866455 0 -1
116.69999694824219 92.30000305175781 -14.994999885559082 0 -1
112.19999694824219 90.30000305175781 -15.960000038146973 0 -1
117.5 75.80000305175781 -12.473999977111816 0 -1
114.19999694824219 86 -14.996999740600586 0 -1
116.19999694824219 92 -14.979000091552734 0 -1
111.5999984741211 90.5999984741211 -15.595999717712402 0 -1
119.4000015258789 94.19999694824219 -13.88599967956543 0 -1
120.4000015258789 79.69999694824219 -12.727999687194824 0 -1
111 79.69999694824219 -12.75 0 -1
121.5 89.4000015258789 -15.520999908447266 0 -1
113.19999694824219 75.69999694824219 -14.90999984741211 0 -1
118.19999694824219 80.30000305175781 -12.581000328063965 0 -1
115.30000305175781 88.4000015258789 -15.996000289916992 0 -1
118.9000015258789 75.30000305175781 -12.461000442504883 0 -1
119.19999694824219 80.5999984741211 -13.484999656677246 0 -1
112.69999694824219 77.0999984741211 -14.784000396728516 0 -1
114.69999694824219 82.9000015258789 -13.710000038146973 0 -1
120.4000015258789 92.30000305175781 -15.979000091552734 0 -1
111.0999984741211 88 -15.78600025177002 0 -1
121.80000305175781 79.80000305175781 -13.852999687194824 0 -1
111.19999694824219 78.9000015258789 -12.982000350952148 0 -1
110.80000305175781 84.0999984741211 -13.947999954223633 0 -1
115.69999694824219 90.5999984741211 -16.704999923706055 0 -1
115.19999694824219 85.30000305175781 -15.526000022888184 0 -1
112.5999984741211 92.80000305175781 -15.369999885559082 0 -1
119.0999984741211 79.30000305175781 -12.633000373840332 0 -1
111 84.9000015258789 -14.76099967956543 0 -1
121.30000305175781 94.5 -14.991999626159668 0 -1
111.0999984741211 76.5999984741211 -11.958000183105469 0 -1
122.69999694824219 91 -15.086999893188477 0 -1
112.9000015258789 82.19999694824219 -13.998000144958496 0 -1
115.5999984741211 89.5 -15.958999633789062 0 -1
118 82.30000305175781 -13.597000122070312 0 -1
118.5 89.4000015258789 -14.897000312805176 0 -1
118.0999984741211 94.5999984741211 -13.73799991607666 0 -1
117 81.0999984741211 -12.494000434875488 0 -1
119.30000305175781 86.5 -14.579999923706055 0 -1
118.80000305175781 88.5999984741211 -14.383999824523926 0 -1
111.5999984741211 77.19999694824219 -14.251999855041504 0 -1
113.4000015258789 81.5999984741211 -13.986000061035156 0 -1
121.9000015258789 81.30000305175781 -14.15999984741211 0 -1
121.69999694824219 90.30000305175781 -15.404000282287598 0 -1
117.5 75.9000015258789 -12.4350004196167 0 -1
123 80.5999984741211 -13.487000465393066 0 -1
119.4000015258789 94.0999984741211 -13.99899959564209 0 -1
119.5999984741211 80.69999694824219 -13.352999687194824 0 -1
113.30000305175781 78 -14.473999977111816 0 -1
117.80000305175781 84.69999694824219 -14.53499984741211 0 -1
118.19999694824219 83.30000305175781 -14.288999557495117 0 -1
110.9000015258789 89.69999694824219 -15.406999588012695 0 -1
112.4000015258789 90.5999984741211 -15.975000381469727 0 -1
113.80000305175781 89.5999984741211 -16.25200080871582 0 -1
115.30000305175781 88.5 -15.843000411987305 0 -1
120.5999984741211 77.9000015258789 -12.515999794006348 0 -1
116.69999694824219 77 -12.86299991607666 0 -1
121.0999984741211 93.80000305175781 -14.355999946594238 0 -1
118.4000015258789 76.0999984741211 -12.0600004196167 0 -1
112.30000305175781 89.4000015258789 -15.725000381469727 0 -1
114.5999984741211 89.5999984741211 -16.382999420166016 0 -1
113.4000015258789 81.19999694824219 -14.375 0 -1
113 94.4000015258789 -13.918999671936035 0 -1
116.30000305175781 86.0999984741211 -14.291999816894531 0 -1
110.4000015258789 81 -11.538999557495117 0 -1
121.4000015258789 84.19999694824219 -14.508999824523926 0 -1
120 87.0999984741211 -13.833000183105469 0 -1
110.5999984741211 81.9000015258789 -13.46500015258789 0 -1
116.9000015258789 94.0999984741211 -12.972999572753906 0 -1
116.5 90.5999984741211 -15.961999893188477 0 -1
119 86.9000015258789 -14.444000244140625 0 -1
115.80000305175781 90.19999694824219 -15.986000061035156 0 -1
112.19999694824219 77 -14.725000381469727 0 -1
110.80000305175781 79 -12.925999641418457 0 -1
111 84.80000305175781 -14.449999809265137 0 -1
117.69999694824219 82 -13.718000411987305 0 -1
120.0999984741211 84.69999694824219 -8.277000427246094 1 -1
114.0999984741211 94.9000015258789 -12.795000076293945 0 -1
112.69999694824219 92.9000015258789 -15.357000350952148 0 -1
116.80000305175781 93.19999694824219 -13.951000213623047 0 -1
110.5999984741211 82.9000015258789 -12.954000473022461 0 -1
111.80000305175781 86.4000015258789 -15.572999954223633 0 -1
120.4000015258789 79 -12.75 0 -1
111.19999694824219 84 -13.460000038146973 0 -1
115.80000305175781 76.9000015258789 -12.621000289916992 0 -1
113.9000015258789 82.5 -13.895000457763672 0 -1
120.5 82.80000305175781 -13.666999816894531 0 -1
119.30000305175781 86.4000015258789 -14.300999641418457 0 -1
117.5999984741211 80.19999694824219 -12.631999969482422 0 -1
114.19999694824219 85.9000015258789 -14.989999771118164 0 -1
111.5999984741211 77.30000305175781 -14.288000106811523 0 -1
121.0999984741211 76.4000015258789 -11.956000328063965 0 -1
115.5 92.80000305175781 -13.940999984741211 0 -1
115 94.69999694824219 -12.246000289916992 0 -1
119.9000015258789 87 -13.984999656677246 0 -1
116.5 90.5 -15.954000473022461 0 -1
114.9000015258789 85.69999694824219 -15.517000198364258 0 -1
117.19999694824219 85.5 -13.611000061035156 0 -1
117.30000305175781 86.80000305175781 -13.727999687194824 0 -1
116.5999984741211 78.80000305175781 -12.824000358581543 0 -1
113.5 86.0999984741211 -15.383000373840332 0 -1
112.80000305175781 80.9000015258789 -14.605999946594238 0 -1
114.30000305175781 79.4000015258789 -12.175999641418457 0 -1
119.80000305175781 77.9000015258789 -12.347000122070312 0 -1
115.69999694824219 90.4000015258789 -16.613000869750977 0 -1
115.19999694824219 85.5 -14.975000381469727 0 -1
115.5 77.4000015258789 -13.21399974822998 0 -1
117.0999984741211 76 -13.118000030517578 0 -1
119.80000305175781 78 -12.33899974822998 0 -1
114.4000015258789 85.19999694824219 -14.937000274658203 0 -1
114 92 -14.803999900817871 0 -1
114.5 85.30000305175781 -14.994000434875488 0 -1
120.5999984741211 93.30000305175781 -14.715999603271484 0 -1
121.0999984741211 93.69999694824219 -14.543999671936035 0 -1
112.4000015258789 90.5 -15.864999771118164 0 -1
117.19999694824219 85 -13.92199993133545 0 -1
116.4000015258789 84.0999984741211 -13.54800033569336 0 -1
113.5999984741211 82.30000305175781 -13.86400032043457 0 -1
120.9000015258789 83.4000015258789 -13.463000297546387 0 -1
115.0999984741211 88.80000305175781 -15.99899959564209 0 -1
117.5 76.19999694824219 -12.583000183105469 0 -1
113.30000305175781 78.69999694824219 -14.347999572753906 0 -1
123 80.4000015258789 -13.454999923706055 0 -1
113.80000305175781 90.0999984741211 -16.774999618530273 0 -1
117.80000305175781 84.5 -14.51099967956543 0 -1
112.5 82 -13.982000350952148 0 -1
117.5 91.19999694824219 -15.982000350952148 0 -1
110.9000015258789 74.30000305175781 -11.590999603271484 0 -1
122.80000305175781 84.80000305175781 -12.666999816894531 1 -1
115.80000305175781 77.69999694824219 -12.449999809265137 0 -1
118.4000015258789 87.4000015258789 -13.880000114440918 0 -1
121.19999694824219 91.19999694824219 -15.784000396728516 0 -1
112.80000305175781 81.9000015258789 -13.949999809265137 0 -1
113.69999694824219 84.19999694824219 -14.75100040435791 0 -1
120.30000305175781 77.69999694824219 -11.930999755859375 0 -1
115.4000015258789 83.0999984741211 -13.583000183105469 0 -1
110.80000305175781 84.19999694824219 -13.866999626159668 0 -1
120.80000305175781 79.19999694824219 -13.095000267028809 0 -1
121.5 89.5 -15.494000434875488 0 -1
118.19999694824219 80.19999694824219 -12.588000297546387 0 -1
115.19999694824219 85.4000015258789 -15.46399974822998 0 -1
114.80000305175781 87.5 -15.883000373840332 0 -1
116 79.9000015258789 -11.973999977111816 0 -1
117.4000015258789 92.19999694824219 -14.970999717712402 0 -1
116.19999694824219 92.0999984741211 -14.984000205993652 0 -1
112.19999694824219 76.80000305175781 -14.720000267028809 0 -1
120.5999984741211 93.19999694824219 -14.888999938964844 0 -1
111.69999694824219 93.5999984741211 -15.164999961853027 0 -1
116.9000015258789 93.80000305175781 -13.800000190734863 0 -1
114.4000015258789 85.30000305175781 -14.975000381469727 0 -1
116.69999694824219 76.80000305175781 -13.118000030517578 0 -1
110.5 76.5999984741211 -11.53600025177002 0 -1
114 91.80000305175781 -15.204000473022461 0 -1
122.69999694824219 91.0999984741211 -15.071999549865723 0 -1
118.80000305175781 88.80000305175781 -14.579999923706055 0 -1
115.9000015258789 78.4000015258789 -12.182999610900879 0 -1
110.4000015258789 80.80000305175781 -11.88599967956543 0 -1
118.30000305175781 88.0999984741211 -14.512999534606934 0 -1
118.0999984741211 94.69999694824219 -13.71500015258789 0 -1
112.5999984741211 92.9000015258789 -15.746000289916992 0 -1
112.5 82.0999984741211 -13.99899959564209 0 -1
119.19999694824219 80.5 -13.300999641418457 0 -1
119.0999984741211 79.19999694824219 -12.32699966430664 0 -1
121.30000305175781 79.19999694824219 -14.45199966430664 0 -1
113.30000305175781 78.5999984741211 -14.557999610900879 0 -1
115 79.30000305175781 -11.970000267028809 0 -1
119.9000015258789 94.4000015258789 4.96999979019165 3 -1
111.4000015258789 90.19999694824219 -15.340999603271484 0 -1
123 80.5 -13.479999542236328 0 -1
113.19999694824219 90.19999694824219 -16.288999557495117 0 -1
116.0999984741211 77.0999984741211 -11.906999588012695 0 -1
120.30000305175781 77.80000305175781 -12.324000358581543 0 -1
118.19999694824219 83.19999694824219 -11.956000328063965 1 -1
113.0999984741211 89 -16.726999282836914 0 -1
116.69999694824219 92.4000015258789 -14.984000205993652 0 -1
111.5 78.4000015258789 -13.883999824523926 0 -1
121.9000015258789 81.19999694824219 -14.187000274658203 0 -1
112 79.19999694824219 -13.538000106811523 0 -1
111.9000015258789 80.5 -13.906999588012695 0 -1
120.4000015258789 92.4000015258789 -15.963000297546387 0 -1
117.0999984741211 91.4000015258789 -15.63599967956543 0 -1
114.0999984741211 81.69999694824219 -13.508999824523926 0 -1
110.9000015258789 89.5999984741211 -15.456000328063965 0 -1
118.5999984741211 77.4000015258789 -12.984999656677246 0 -1
117.9000015258789 91.30000305175781 -15.751999855041504 0 -1
113 79.0999984741211 -14.460000038146973 0 -1
117.5999984741211 80 -12.569000244140625 0 -1
116.30000305175781 86.19999694824219 -14.50100040435791 0 -1
121.4000015258789 84.0999984741211 -11.824999809265137 1 -1
118.4000015258789 87.30000305175781 -14.300000190734863 0 -1
110.5999984741211 81.80000305175781 -13.029000282287598 0 -1
112.19999694824219 76.9000015258789 -14.795000076293945 0 -1
111.5999984741211 76.80000305175781 -14.741000175476074 0 -1
118 82.4000015258789 -13.621000289916992 0 -1
114.5999984741211 89.69999694824219 -16.35700035095215 0 -1
111.0999984741211 87.9000015258789 -15.786999702453613 0 -1
120.5 82.69999694824219 -13.656999588012695 0 -1
112.4000015258789 90.19999694824219 -15.973999977111816 0 -1
117 94.5 -12.946999549865723 0 -1
114.19999694824219 85.5999984741211 -14.991999626159668 0 -1
119 87 -14.46500015258789 0 -1
119.5999984741211 80.80000305175781 -13.718999862670898 0 -1
118.5999984741211 86.5999984741211 -14.753999710083008 0 -1
110.80000305175781 79.0999984741211 -12.887999534606934 0 -1
110.30000305175781 76.5 -11.303000450134277 0 -1
120.0999984741211 84.5999984741211 -8.111000061035156 1 -1
117.30000305175781 86.69999694824219 -13.74899959564209 0 -1
112.69999694824219 92.80000305175781 -15.420000076293945 0 -1
116.80000305175781 93.30000305175781 -13.906999588012695 0 -1
112.69999694824219 77.5 -14.756999969482422 0 -1
122.0999984741211 77.9000015258789 -12.517999649047852 0 -1
116.5999984741211 78.5999984741211 -12.824000358581543 0 -1
110 82.5999984741211 -13.09000015258789 0 -1
120.4000015258789 79.0999984741211 -12.840999603271484 0 -1
115 94.5999984741211 -12.371999740600586 0 -1
117.0999984741211 91.5 -15.61400032043457 0 -1
116 80.0999984741211 -12.720999717712402 0 -1
114 76.5 -14.961999893188477 0 -1
113.5 86.19999694824219 -14.979000091552734 0 -1
111 79.5999984741211 -12.802000045776367 0 -1
116.0999984741211 77.30000305175781 -12.33899974822998 0 -1
113 79 -14.598999977111816 0 -1
111.9000015258789 80.4000015258789 -13.817000389099121 0 -1
122.4000015258789 81 -13.814000129699707 0 -1
115.5 92.69999694824219 -13.854000091552734 0 -1
111.4000015258789 90.5 -15.270999908447266 0 -1
110.5999984741211 82.5 -13.3149995803833 0 -1
116.69999694824219 92.19999694824219 -15.821000099182129 0 -1
120.4000015258789 92.19999694824219 -15.994000434875488 0 -1
111.19999694824219 84.4000015258789 -13.949999809265137 0 -1
110.9000015258789 74.69999694824219 -11.694999694824219 0 -1
117.5999984741211 80.0999984741211 -12.588000297546387 0 -1
116.4000015258789 84 -13.217000007629395 0 -1
113.9000015258789 82.9000015258789 -13.817999839782715 0 -1
120.30000305175781 95 5.466000080108643 3 -1
111 84.69999694824219 -14.361000061035156 0 -1
115.5 77.30000305175781 -12.402999877929688 0 -1
114.80000305175781 87.30000305175781 -15.984000205993652 0 -1
114.69999694824219 82.80000305175781 -13.630000114440918 0 -1
111.5999984741211 76.9000015258789 -14.180000305175781 0 -1
118.5999984741211 77.69999694824219 -12.90999984741211 0 -1
110.9000015258789 90.0999984741211 -15.73900032043457 0 -1
120.5999984741211 93.4000015258789 -14.888999938964844 0 -1
119.9000015258789 86.5999984741211 -13.961999893188477 0 -1
117.19999694824219 85.0999984741211 -13.781999588012695 0 -1
115.80000305175781 91.0999984741211 -15.994000434875488 0 -1
111.80000305175781 86.30000305175781 -15.477999687194824 0 -1
113.80000305175781 90 -16.29599952697754 0 -1
113.69999694824219 84.0999984741211 -14.713000297546387 0 -1
111.5999984741211 90.19999694824219 -15.53600025177002 0 -1
122.5999984741211 79.19999694824219 -13.217000007629395 0 -1
115.5999984741211 89.4000015258789 -15.994000434875488 0 -1
114.5 85.4000015258789 -14.975000381469727 0 -1
112.80000305175781 81.80000305175781 -13.993000030517578 0 -1
119.4000015258789 94 -15.939000129699707 0 -1
110.30000305175781 76.30000305175781 -11.473999977111816 0 -1
117.80000305175781 84.5999984741211 -14.62399959564209 0 -1
117.9000015258789 91.5 -15.515000343322754 0 -1
117 81.19999694824219 -12.156999588012695 0 -1
116.9000015258789 93.69999694824219 -13.829000473022461 0 -1
113.30000305175781 78.80000305175781 -14.223999977111816 0 -1
116.5999984741211 78.69999694824219 -12.843999862670898 0 -1
118.19999694824219 80.0999984741211 -12.581000328063965 0 -1
115.80000305175781 77.80000305175781 -12.487000465393066 0 -1
122.19999694824219 90.30000305175781 -15.138999938964844 0 -1
115.0999984741211 88.4000015258789 -15.913000106811523 0 -1
114.80000305175781 87.4000015258789 -15.824999809265137 0 -1
112.0999984741211 80.19999694824219 -13.79699993133545 0 -1
119.69999694824219 77.5 -12.314000129699707 0 -1
115.5999984741211 89.80000305175781 -15.973999977111816 0 -1
120.30000305175781 77.5999984741211 -11.987000465393066 0 -1
115 94.80000305175781 -12.133000373840332 0 -1
120.9000015258789 82.5 -13.70199966430664 0 -1
118.4000015258789 76 -12.133000373840332 0 -1
110.80000305175781 84.30000305175781 -13.9399995803833 0 -1
116.0999984741211 77.19999694824219 -13.187000274658203 0 -1
112.30000305175781 89.5 -15.718000411987305 0 -1
112.9000015258789 82.5999984741211 -13.97700023651123 0 -1
111.69999694824219 93.69999694824219 -15.126999855041504 0 -1
114 76.30000305175781 -14.961999893188477 0 -1
113 94.30000305175781 -13.996999740600586 0 -1
116.69999694824219 76.9000015258789 -12.538000106811523 0 -1
114.0999984741211 81.9000015258789 -13.508999824523926 0 -1
113.4000015258789 81.30000305175781 -14.319000244140625 0 -1
122.0999984741211 79.80000305175781 -13.836999893188477 0 -1
116.0999984741211 92.5999984741211 -14.555000305175781 0 -1
121 87.9000015258789 -14.107000350952148 0 -1
115.30000305175781 88.5999984741211 -15.878000259399414 0 -1
118.9000015258789 75.5 -12.461000442504883 0 -1
114.69999694824219 82.69999694824219 -13.590999603271484 0 -1
119.19999694824219 80.4000015258789 -13.392999649047852 0 -1
118.5999984741211 77.80000305175781 -12.961000442504883 0 -1
117.4000015258789 92.5999984741211 -14.947999954223633 0 -1
114 91.9000015258789 -14.902999877929688 0 -1
121.9000015258789 80.5999984741211 -14.336000442504883 0 -1
111.5999984741211 90.30000305175781 -15.517000198364258 0 -1
119.4000015258789 93.9000015258789 -15.729999542236328 0 -1
118.80000305175781 88.9000015258789 -14.440999984741211 0 -1
115.69999694824219 90.80000305175781 -15.835000038146973 0 -1
120.5 82.9000015258789 -13.652999877929688 0 -1
121.0999984741211 92.5999984741211 -15.736000061035156 0 -1
111.0999984741211 87.69999694824219 -15.800000190734863 0 -1
123 81.30000305175781 -13.677000045776367 0 -1
112.5999984741211 93 -15.753000259399414 0 -1
112.9000015258789 82.5 -13.880000114440918 0 -1
117 94.69999694824219 -12.923999786376953 0 -1
110.5999984741211 81.5 -12.234999656677246 0 -1
115.19999694824219 85.5999984741211 -15.4399995803833 0 -1
119.69999694824219 90.80000305175781 -16.474000930786133 0 -1
111 79.5 -12.75 0 -1
112.19999694824219 90.19999694824219 -15.989999771118164 0 -1
114.0999984741211 95 -12.998000144958496 0 -1
122.5 91 -14.996999740600586 0 -1
110.4000015258789 80.69999694824219 -11.883000373840332 0 -1
117.9000015258789 91.4000015258789 -15.479000091552734 0 -1
121.80000305175781 77.9000015258789 -12.071000099182129 0 -1
117.69999694824219 82.4000015258789 -12.913000106811523 0 -1
122.9000015258789 77.80000305175781 -12.581000328063965 0 -1
116.5999984741211 78 -12.079000473022461 0 -1
116.19999694824219 91.19999694824219 -15.975000381469727 0 -1
114.30000305175781 79.5 -12.892999649047852 0 -1
116.80000305175781 93.5999984741211 -13.944999694824219 0 -1
120.4000015258789 78.9000015258789 -12.46399974822998 0 -1
118.0999984741211 94.30000305175781 -13.704999923706055 0 -1
113.5999984741211 82.4000015258789 -13.84000015258789 0 -1
116.5 90.4000015258789 -15.92300033569336 0 -1
114.9000015258789 85.5999984741211 -14.994999885559082 0 -1
117.0999984741211 76.0999984741211 -13.232000350952148 0 -1
119.5999984741211 80.5 -13.253999710083008 0 -1
120.5999984741211 78 -12.623000144958496 0 -1
120.0999984741211 84.5 -8.142000198364258 1 -1
117.5 91.5999984741211 -15.592000007629395 0 -1
115.80000305175781 90.9000015258789 -15.946999549865723 0 -1
112.19999694824219 77.69999694824219 -14.258000373840332 0 -1
122.80000305175781 85.19999694824219 -8.755000114440918 1 -1
116.69999694824219 77.69999694824219 -12.626999855041504 0 -1
118.5 89.30000305175781 -14.937000274658203 0 -1
121.5999984741211 77.5999984741211 -12.154000282287598 0 -1
115.30000305175781 88.69999694824219 -15.98900032043457 0 -1
122.9000015258789 91.0999984741211 -14.925000190734863 0 -1
119.80000305175781 78.0999984741211 -12.28499984741211 0 -1
116.30000305175781 86.80000305175781 -14.531000137329102 0 -1
112 79.5999984741211 -13.59000015258789 0 -1
117.4000015258789 92.5 -14.99899959564209 0 -1
117.5999984741211 79.9000015258789 -12.598999977111816 0 -1
122.5 90.9000015258789 -15.059000015258789 0 -1
113.9000015258789 82.69999694824219 -13.958000183105469 0 -1
114.5999984741211 89.80000305175781 -16.382999420166016 0 -1
113.4000015258789 81.4000015258789 -14.375 0 -1
117.80000305175781 84.4000015258789 -14.62399959564209 0 -1
111.0999984741211 87.80000305175781 -15.763999938964844 0 -1
122.9000015258789 77.69999694824219 -12.638999938964844 0 -1
114.19999694824219 85.69999694824219 -15.725000381469727 0 -1
115.80000305175781 77.5999984741211 -12.487000465393066 0 -1
118.19999694824219 83.0999984741211 -12.072999954223633 1 -1
117.69999694824219 82.19999694824219 -12.913000106811523 0 -1
111.0999984741211 76.5 -14.772000312805176 0 -1
119.0999984741211 79.0999984741211 -13.255000114440918 0 -1
116 80 -11.871999740600586 0 -1
117.30000305175781 86.5999984741211 -13.727999687194824 0 -1
113.5 86.30000305175781 -15.121000289916992 0 -1
121.0999984741211 92.5 -15.777999877929688 0 -1
111.19999694824219 79.30000305175781 -12.984000205993652 0 -1
112.69999694824219 77.4000015258789 -14.765999794006348 0 -1
123 81.4000015258789 -13.446000099182129 0 -1
112.30000305175781 89.69999694824219 -15.819000244140625 0 -1
114.4000015258789 85.4000015258789 -14.994000434875488 0 -1
121.80000305175781 78 -12.357999801635742 0 -1
118.30000305175781 88.5 -14.605999946594238 0 -1
120.80000305175781 79.30000305175781 -13.069999694824219 0 -1
117 81.4000015258789 -12.463000297546387 0 -1
116.9000015258789 93.9000015258789 -13.984000205993652 0 -1
115.5 92.5999984741211 -13.980999946594238 0 -1
110 82.5 -12.552000045776367 0 -1
110.80000305175781 79.19999694824219 -12.925999641418457 0 -1
111.4000015258789 90.5999984741211 -15.293999671936035 0 -1
118.5999984741211 77.5999984741211 -12.961000442504883 0 -1
110.5 76.69999694824219 -11.579000473022461 0 -1
123 94.5999984741211 -12.27400016784668 0 -1
119.9000015258789 86.69999694824219 -13.925000190734863 0 -1
110.9000015258789 74.5999984741211 -11.753999710083008 0 -1
116.0999984741211 77.4000015258789 -12.291999816894531 0 -1
112.5 82.69999694824219 -13.940999984741211 0 -1
122.69999694824219 91.19999694824219 -15.041000366210938 0 -1
112.19999694824219 77.80000305175781 -14.17300033569336 0 -1
113.9000015258789 82.80000305175781 -13.97599983215332 0 -1
113.80000305175781 89.9000015258789 -16.28700065612793 0 -1
115.9000015258789 78.5 -12.12399959564209 0 -1
122.4000015258789 80.9000015258789 -13.876999855041504 0 -1
115.5 77.19999694824219 -12.63700008392334 0 -1
117.5 91.4000015258789 -15.980999946594238 0 -1
120.30000305175781 94.9000015258789 5.26800012588501 3 -1
119.80000305175781 78.19999694824219 -12.185999870300293 0 -1
114.5 85.5 -14.994000434875488 0 -1
110.9000015258789 90 -15.72599983215332 0 -1
120.80000305175781 78.9000015258789 -13.604000091552734 0 -1
122.5999984741211 94.5 -12.765000343322754 0 -1
113.69999694824219 84 -14.654000282287598 0 -1
122.5999984741211 79.30000305175781 -13.279000282287598 0 -1
117.9000015258789 91.5999984741211 -15.479000091552734 0 -1
112 79.5 -13.593999862670898 0 -1
112.69999694824219 92.69999694824219 -15.411999702453613 0 -1
118.19999694824219 80 -12.847000122070312 0 -1
115 79.4000015258789 -11.88700008392334 0 -1
115.4000015258789 83.80000305175781 -13.241000175476074 0 -1
113.19999694824219 90.30000305175781 -16.30699920654297 0 -1
114.9000015258789 85.4000015258789 -14.854000091552734 0 -1
114 91.69999694824219 -15.63700008392334 0 -1
114.30000305175781 79.5999984741211 -12.826000213623047 0 -1
111.0999984741211 76.30000305175781 -14.890000343322754 0 -1
113.0999984741211 88.9000015258789 -15.99899959564209 0 -1
116.69999694824219 93.0999984741211 -13.857999801635742 0 -1
111.80000305175781 86.69999694824219 -15.741999626159668 0 -1
119 86.5999984741211 -14.612000465393066 0 -1
118.5999984741211 87 -14.982999801635742 0 -1
118.4000015258789 87.19999694824219 -14.866000175476074 0 -1
121.5999984741211 77.80000305175781 -12.154000282287598 0 -1
120 87.30000305175781 -13.866000175476074 0 -1
114.4000015258789 85.5 -14.993000030517578 0 -1
119.69999694824219 91 -16.225000381469727 0 -1
112.80000305175781 81.69999694824219 -13.897000312805176 0 -1
111.9000015258789 80.30000305175781 -13.96500015258789 0 -1
117.19999694824219 85.19999694824219 -13.602999687194824 0 -1
120.30000305175781 77.5 -11.930999755859375 0 -1
118.30000305175781 88.4000015258789 -14.567000389099121 0 -1
116.0999984741211 92.69999694824219 -14.9350004196167 0 -1
110.5 75.9000015258789 -11.465999603271484 0 -1
117.5 91.5 -15.657999992370605 0 -1
119.69999694824219 77.5999984741211 -12.480999946594238 0 -1
113.30000305175781 78.4000015258789 -14.574000358581543 0 -1
116.4000015258789 84.9000015258789 -13.890999794006348 0 -1
114.0999984741211 81.80000305175781 -13.61299991607666 0 -1
118 82.5 -13.519000053405762 0 -1
118.4000015258789 75.9000015258789 -12.21399974822998 0 -1
121.19999694824219 90.9000015258789 -15.736000061035156 0 -1
120.9000015258789 82.5999984741211 -13.694999694824219 0 -1
123 94.69999694824219 -12.427000045776367 0 -1
120.5999984741211 78.19999694824219 -12.84000015258789 0 -1
111.69999694824219 93.80000305175781 -15.164999961853027 0 -1
112.0999984741211 80.5999984741211 -13.961000442504883 0 -1
121 88 -14.156999588012695 0 -1
113.5999984741211 82 -13.465999603271484 0 -1
123 81.19999694824219 -13.446000099182129 0 -1
117.5 76.0999984741211 -12.605999946594238 0 -1
122.80000305175781 85.0999984741211 7.480000019073486 2 -1
117 94.5999984741211 -12.85200023651123 0 -1
110.30000305175781 76.4000015258789 -11.567000389099121 0 -1
120.4000015258789 92.5999984741211 -15.902000427246094 0 -1
112.5 82.80000305175781 -13.98900032043457 0 -1
119.69999694824219 90.9000015258789 -16.20800018310547 0 -1
110.80000305175781 84.4000015258789 -13.961999893188477 0 -1
117.0999984741211 91.5999984741211 -15.545000076293945 0 -1
122.5 91.0999984741211 -15.074999809265137 0 -1
121.9000015258789 80.5 -13.845000267028809 0 -1
114 76.4000015258789 -14.892000198364258 0 -1
111.0999984741211 87.5999984741211 -15.70199966430664 0 -1
112.5999984741211 93.0999984741211 -14.99899959564209 0 -1
113 78.9000015258789 -14.543000221252441 0 -1
114.80000305175781 87.69999694824219 -15.883000373840332 0 -1
110.5999984741211 81.5999984741211 -11.96399974822998 0 -1
111.4000015258789 90.4000015258789 -15.293999671936035 0 -1
115.19999694824219 85.69999694824219 -14.975000381469727 0 -1
115.4000015258789 83.9000015258789 -13.407999992370605 0 -1
111.5999984741211 77 -14.251999855041504 0 -1
119.19999694824219 80.80000305175781 -13.746999740600586 0 -1
119.5999984741211 80.4000015258789 -13.29699993133545 0 -1
115 79.5999984741211 -11.88700008392334 0 -1
118 82.5999984741211 -13.532999992370605 0 -1
121.19999694824219 91 -15.814000129699707 0 -1
118.5 89.0999984741211 -14.729000091552734 0 -1
116 80.69999694824219 -11.701000213623047 0 -1
116.69999694824219 77.80000305175781 -12.6850004196167 0 -1
112.19999694824219 77.5999984741211 -14.70199966430664 0 -1
115.9000015258789 78.69999694824219 -12.12399959564209 0 -1
122.4000015258789 81.0999984741211 -13.800000190734863 0 -1
114.5 85 -14.97599983215332 0 -1
120.5 82.5 -13.656999588012695 0 -1
111 84.5999984741211 -14.152000427246094 0 -1
110.5999984741211 82.5999984741211 -12.949000358581543 0 -1
112.9000015258789 82.9000015258789 -13.87399959564209 0 -1
111.9000015258789 80.19999694824219 -13.809000015258789 0 -1
116.30000305175781 86.9000015258789 -14.673999786376953 0 -1
113.9000015258789 82.0999984741211 -13.869999885559082 0 -1
110.30000305175781 76.69999694824219 -11.276000022888184 0 -1
118.4000015258789 75.80000305175781 -12.501999855041504 0 -1
120.5999984741211 78.0999984741211 -12.357999801635742 0 -1
112.69999694824219 77.80000305175781 -14.784000396728516 0 -1
113 79.30000305175781 -14.536999702453613 0 -1
117.5999984741211 79.80000305175781 -12.911999702453613 0 -1
115.80000305175781 91 -15.699000358581543 0 -1
116.80000305175781 93.5 -13.951000213623047 0 -1
114.0999984741211 81 -13.904999732971191 0 -1
122.0999984741211 95 -12.104000091552734 0 -1
118.5 89.19999694824219 -14.380000114440918 0 -1
118.0999984741211 94.4000015258789 -13.65999984741211 0 -1
121.5999984741211 77.69999694824219 -11.545999526977539 0 -1
114.80000305175781 87.80000305175781 -15.9399995803833 0 -1
117.19999694824219 82.69999694824219 -12.711999893188477 0 -1
117.4000015258789 76.5 -12.895000457763672 0 -1
118.19999694824219 83 -11.956000328063965 1 -1
117.69999694824219 82.30000305175781 -13.86400032043457 0 -1
119.30000305175781 86.19999694824219 -14.300999641418457 0 -1
114.5999984741211 89.9000015258789 -16.493999481201172 0 -1
120.0999984741211 84.9000015258789 -8.277000427246094 1 -1
111.19999694824219 79.19999694824219 -12.982999801635742 0 -1
111.5 78.5 -13.928000450134277 0 -1
118.5999984741211 86.80000305175781 -14.741999626159668 0 -1
122.19999694824219 90.19999694824219 -15.253000259399414 0 -1
111.0999984741211 76.4000015258789 -14.954000473022461 0 -1
119.0999984741211 79 -13.333000183105469 0 -1
113.4000015258789 80.9000015258789 -14.630999565124512 0 -1
122.5999984741211 94.69999694824219 3.9820001125335693 3 -1
117 81.30000305175781 -12.390999794006348 0 -1
110.9000015258789 74.5 -11.649999618530273 0 -1
112.30000305175781 89.5999984741211 -16.30299949645996 0 -1
112.19999694824219 91.0999984741211 -15.88700008392334 0 -1
114 76.19999694824219 -14.854000091552734 0 -1
111 84.5 -14.079999923706055 0 -1
115 94.9000015258789 -13.824999809265137 0 -1
123 94.5 -12.427000045776367 0 -1
110.9000015258789 89.9000015258789 -15.73900032043457 0 -1
119.30000305175781 86.0999984741211 -14.388999938964844 0 -1
114.69999694824219 82.0999984741211 -13.562000274658203 0 -1
112.0999984741211 80.4000015258789 -13.928999900817871 0 -1
111.5999984741211 77.5999984741211 -13.449000358581543 0 -1
112.69999694824219 93.0999984741211 -14.75100040435791 0 -1
115.5 92.5 -14.746000289916992 0 -1
110.80000305175781 79.30000305175781 -12.942000389099121 0 -1
117.0999984741211 92.69999694824219 -14.857000350952148 0 -1
115.5999984741211 89.69999694824219 -15.942000389099121 0 -1
117.69999694824219 83.5999984741211 -10.548999786376953 1 -1
