VERSION .7
FIELDS x y z label object
SIZE 4 4 4 4 4
TYPE F F F I I
COUNT 1 1 1 1 1
WIDTH 863
HEIGHT 1
POINTS 863
VIEWPOINT 0 0 0 1 0 0 0
DATA ascii
121 94.19999694824219 -13.494000434875488 0 -1
114.5 78.0999984741211 -13.562999725341797 0 -1
118.4000015258789 80.19999694824219 -13.769000053405762 0 -1
112.5 83.5999984741211 -14.91100025177002 0 -1
110.0999984741211 81.19999694824219 -12.213000297546387 0 -1
122.19999694824219 91.0999984741211 -15.432999610900879 0 -1
121.0999984741211 86.69999694824219 -14.47700023651123 0 -1
116.9000015258789 81.5 -13.682000160217285 0 -1
117.19999694824219 83.5999984741211 -14.59000015258789 0 -1
114.19999694824219 83 -15.395999908447266 0 -1
115.19999694824219 94.0999984741211 -13.781000137329102 0 -1
119.69999694824219 75.5999984741211 -11.642000198364258 0 -1
119.4000015258789 80.5 -8.89900016784668 1 -1
113.4000015258789 87.30000305175781 -14.869000434875488 0 -1
110.80000305175781 88 -15.812000274658203 0 -1
111.19999694824219 75.5999984741211 -13.996999740600586 0 -1
118.69999694824219 91.0999984741211 -16.51300048828125 0 -1
111.0999984741211 80.9000015258789 -12.753000259399414 0 -1
117.69999694824219 83.19999694824219 -14.343000411987305 0 -1
119.30000305175781 79.30000305175781 -13.732000350952148 0 -1
119.0999984741211 85.9000015258789 -13.928000450134277 0 -1
112 78.19999694824219 -14.324999809265137 0 -1
120.30000305175781 81.69999694824219 -5.676000118255615 1 -1
113.69999694824219 82.5 -15.833000183105469 0 -1
114.5999984741211 94.80000305175781 -12.994000434875488 0 -1
118.80000305175781 94.5 -13.583000183105469 0 -1
119.9000015258789 76.19999694824219 -11.543000221252441 0 -1
116.30000305175781 92.19999694824219 -13.98900032043457 0 -1
110.0999984741211 81.5999984741211 -12.449999809265137 0 -1
115.30000305175781 90.9000015258789 -16.604000091552734 0 -1
117 93.5 -13.517999649047852 0 -1
111.80000305175781 93.19999694824219 -14.954999923706055 0 -1
112.19999694824219 76.80000305175781 -14.26200008392334 0 -1
119.9000015258789 87.5 -14.064000129699707 0 -1
113.0999984741211 85.30000305175781 -15.946999549865723 0 -1
113.5999984741211 85.19999694824219 -15.847999572753906 0 -1
121.69999694824219 83.30000305175781 -15.437000274658203 0 -1
112.9000015258789 77.0999984741211 -14.359999656677246 0 -1
111.30000305175781 87.80000305175781 -15.659000396728516 0 -1
114.5999984741211 79.80000305175781 -11.574999809265137 0 -1
114.0999984741211 76.9000015258789 -14.619999885559082 0 -1
115.0999984741211 86.80000305175781 -15.515999794006348 0 -1
117.5 76.5999984741211 -12.631999969482422 0 -1
114.9000015258789 83.4000015258789 -14.555999755859375 0 -1
112.9000015258789 92.4000015258789 -15.609000205993652 0 -1
112.19999694824219 92.19999694824219 -15.230999946594238 0 -1
110.9000015258789 89.0999984741211 -15.836000442504883 0 -1
113.5 79.9000015258789 -14.470000267028809 0 -1
114.9000015258789 80.30000305175781 -11.939000129699707 0 -1
116.5 91.30000305175781 -14.920000076293945 0 -1
116.80000305175781 78.5999984741211 -12.281999588012695 0 -1
111.5 79.9000015258789 -13.982999801635742 0 -1
121.0999984741211 86.5999984741211 -14.47599983215332 0 -1
110.30000305175781 86.5999984741211 -14.821000099182129 0 -1
112.0999984741211 79.30000305175781 -14.241000175476074 0 -1
120 87.4000015258789 -14.064000129699707 0 -1
122.69999694824219 81.5999984741211 -13.611000061035156 0 -1
115.69999694824219 91.69999694824219 -15.881999969482422 0 -1
114.69999694824219 89.5 -16.990999221801758 0 -1
122.5 86.19999694824219 -14.479999542236328 0 -1
111.19999694824219 90.9000015258789 -15.435999870300293 0 -1
112.5999984741211 78.69999694824219 -14.512999534606934 0 -1
120 76.0999984741211 -11.5600004196167 0 -1
115.4000015258789 79.9000015258789 -11.696999549865723 0 -1
116.69999694824219 85 -14.029999732971191 0 -1
118.5999984741211 76.4000015258789 -12.050000190734863 0 -1
114.30000305175781 84.19999694824219 -15.75 0 -1
121.30000305175781 79.4000015258789 -13.0649995803833 0 -1
112.0999984741211 94.69999694824219 -13.192999839782715 0 -1
112.30000305175781 94.0999984741211 -13.496999740600586 0 -1
112.69999694824219 84.80000305175781 -15.494000434875488 0 -1
112 78.0999984741211 -14.444000244140625 0 -1
121.80000305175781 81.30000305175781 -9.442999839782715 1 -1
121.19999694824219 87.5 -15.380999565124512 0 -1
112.9000015258789 77 -14.329999923706055 0 -1
121 94 -13.494000434875488 0 -1
110.69999694824219 92.80000305175781 -15.680999755859375 0 -1
121.5 92.30000305175781 -15.256999969482422 0 -1
118.19999694824219 75.69999694824219 -12.576000213623047 0 -1
118 85.5 -14.185999870300293 0 -1
118.5 81.0999984741211 -13.85200023651123 0 -1
116.5 91.19999694824219 -14.980999946594238 0 -1
118.0999984741211 87.30000305175781 -14.069000244140625 0 -1
113 76.0999984741211 -14.62399959564209 0 -1
117.5999984741211 86.69999694824219 -14.170999526977539 0 -1
115.80000305175781 80.4000015258789 -11.59000015258789 0 -1
120.5999984741211 86.5999984741211 -14.211000442504883 0 -1
115.0999984741211 86.9000015258789 -15.520999908447266 0 -1
110.5999984741211 76.5 -13.687000274658203 0 -1
117.0999984741211 77.0999984741211 -12.71500015258789 0 -1
111.69999694824219 90.80000305175781 -15.291000366210938 0 -1
110.9000015258789 89.19999694824219 -15.843000411987305 0 -1
112.30000305175781 94.19999694824219 -13.553000450134277 0 -1
116.4000015258789 93.9000015258789 -13.880999565124512 0 -1
117.5 94 -13.706999778747559 0 -1
111.0999984741211 81.0999984741211 -12.753000259399414 0 -1
112.30000305175781 76.69999694824219 -14.298999786376953 0 -1
120.30000305175781 82.69999694824219 -5.960999965667725 1 -1
120.30000305175781 81.9000015258789 -5.611000061035156 1 -1
116 91.19999694824219 -15.913999557495117 0 -1
113.9000015258789 88.9000015258789 -15.88599967956543 0 -1
115.30000305175781 77 -13.562000274658203 0 -1
122 88.4000015258789 -15.25100040435791 0 -1
114 78.5999984741211 -13.777999877929688 0 -1
113.19999694824219 82.69999694824219 -15.666999816894531 0 -1
114.80000305175781 88.0999984741211 -16.584999084472656 0 -1
115.9000015258789 94.5999984741211 -12.74899959564209 0 -1
121.5 92.4000015258789 -15.54699993133545 0 -1
120.5999984741211 77.4000015258789 -11.423999786376953 0 -1
118.5999984741211 76.69999694824219 -12.657999992370605 0 -1
111.30000305175781 87.5999984741211 -15.659000396728516 0 -1
122.80000305175781 81 -13.781000137329102 0 -1
115.9000015258789 79.19999694824219 -11.824000358581543 0 -1
116.0999984741211 85.80000305175781 -14.182999610900879 0 -1
120.9000015258789 93.5999984741211 -14.95300006866455 0 -1
114.9000015258789 83.19999694824219 -13.836000442504883 0 -1
115.5999984741211 93.5 -13.95199966430664 0 -1
113 93.5 -14.814000129699707 0 -1
116.19999694824219 85.4000015258789 -13.875 0 -1
117.0999984741211 92.5 -14.991000175476074 0 -1
118.5999984741211 92.0999984741211 -15.862000465393066 0 -1
114.30000305175781 84.0999984741211 -15.743000030517578 0 -1
112.9000015258789 92.30000305175781 -15.659000396728516 0 -1
111.80000305175781 75.9000015258789 -13.949000358581543 0 -1
120.5999984741211 86.69999694824219 -14.199000358581543 0 -1
118 85.4000015258789 -13.9350004196167 0 -1
117.30000305175781 84.80000305175781 -13.932999610900879 0 -1
112.5 83.5 -14.984999656677246 0 -1
120.69999694824219 78.5 -12.729999542236328 0 -1
111.69999694824219 75.5 -13.836000442504883 0 -1
114.80000305175781 74.80000305175781 -12.972000122070312 0 -1
111.19999694824219 91.0999984741211 -15.666999816894531 0 -1
122.9000015258789 81.5 -13.607000350952148 0 -1
119.0999984741211 86 -13.902000427246094 0 -1
116 91.30000305175781 -15.85200023651123 0 -1
114.0999984741211 92.30000305175781 -15.8149995803833 0 -1
116.69999694824219 85.19999694824219 -13.857999801635742 0 -1
114.5 78.19999694824219 -13.486000061035156 0 -1
110.5 91.19999694824219 -15.946000099182129 0 -1
122.30000305175781 81.19999694824219 -13.54800033569336 0 -1
115.19999694824219 93.30000305175781 -14.984000205993652 0 -1
117 76.19999694824219 -12.664999961853027 0 -1
120.5999984741211 77.5 -13.288000106811523 0 -1
117.19999694824219 83.5 -14.534000396728516 0 -1
114.4000015258789 89.5 -16.95400047302246 0 -1
119.4000015258789 80.4000015258789 -9.192999839782715 1 -1
112.4000015258789 88.80000305175781 -15.630000114440918 0 -1
110.80000305175781 87.9000015258789 -15.836000442504883 0 -1
115.69999694824219 91.9000015258789 -15.656999588012695 0 -1
118.19999694824219 93.0999984741211 -15.89900016784668 0 -1
117.69999694824219 83.30000305175781 -14.600000381469727 0 -1
112.19999694824219 76.9000015258789 -14.336999893188477 0 -1
111.80000305175781 93.30000305175781 -14.729999542236328 0 -1
119.19999694824219 89.30000305175781 -16.072999954223633 0 -1
113.5999984741211 85.30000305175781 -15.682000160217285 0 -1
121.69999694824219 83.19999694824219 -15.255000114440918 0 -1
116.30000305175781 92.30000305175781 -13.98900032043457 0 -1
119.5 83.4000015258789 -14.609000205993652 0 -1
111.5999984741211 80.5 -13.5649995803833 0 -1
110.19999694824219 81.19999694824219 -12.267999649047852 0 -1
117.9000015258789 85.80000305175781 -14.128999710083008 0 -1
120.69999694824219 78.4000015258789 -13.307000160217285 0 -1
117.5 94.19999694824219 -12.97599983215332 0 -1
116.0999984741211 86 -14.182999610900879 0 -1
111.80000305175781 76.69999694824219 -14.24899959564209 0 -1
120.69999694824219 85.5999984741211 -14.64799976348877 0 -1
111.5 80.0999984741211 -13.460000038146973 0 -1
116.80000305175781 78.69999694824219 -12.315999984741211 0 -1
118.69999694824219 90.69999694824219 -16.354000091552734 0 -1
121.5999984741211 88.5 -15.368000030517578 0 -1
115.30000305175781 90.30000305175781 -16.753000259399414 0 -1
119.9000015258789 76.0999984741211 -11.576000213623047 0 -1
117.5 76.69999694824219 -12.21500015258789 0 -1
113.69999694824219 82.9000015258789 -15.593999862670898 0 -1
117 93.5999984741211 -13.442000389099121 0 -1
117.5999984741211 87.4000015258789 -13.899999618530273 0 -1
120 87.5 -14.098999977111816 0 -1
114 78.80000305175781 -13.777999877929688 0 -1
114.80000305175781 88.30000305175781 -16.55500030517578 0 -1
120 76.19999694824219 -11.576000213623047 0 -1
115.80000305175781 80.5999984741211 -11.506999969482422 0 -1
114.0999984741211 92.4000015258789 -15.694999694824219 0 -1
110.5 91.30000305175781 -15.717000007629395 0 -1
118.4000015258789 81.5999984741211 -10.515999794006348 1 -1
112.0999984741211 94.5999984741211 -13.270000457763672 0 -1
120.5 90.5999984741211 -15.487000465393066 0 -1
116.4000015258789 93.69999694824219 -13.937999725341797 0 -1
111.4000015258789 85.4000015258789 -14.994999885559082 0 -1
116.9000015258789 81.5999984741211 -13.586000442504883 0 -1
115.19999694824219 93.19999694824219 -14.91100025177002 0 -1
112.5999984741211 78.5999984741211 -14.791999816894531 0 -1
113.5 80.30000305175781 -14.592000007629395 0 -1
115.0999984741211 77.69999694824219 -13.555000305175781 0 -1
111.80000305175781 94.0999984741211 -13.92300033569336 0 -1
112.19999694824219 77.69999694824219 -14.559000015258789 0 -1
118.30000305175781 94.4000015258789 -13.527999877929688 0 -1
115.4000015258789 80 -11.729000091552734 0 -1
114.80000305175781 75 -13.00100040435791 0 -1
111.5 80 -13.440999984741211 0 -1
113.80000305175781 86.19999694824219 -15.720999717712402 0 -1
117 77.4000015258789 -12.427000045776367 0 -1
119.19999694824219 89.0999984741211 -16.072999954223633 0 -1
112.19999694824219 93.0999984741211 -14.482000350952148 0 -1
120.4000015258789 91.30000305175781 -15.555999755859375 0 -1
116.5999984741211 88.5 -15.079000473022461 0 -1
111.5999984741211 80.4000015258789 -13.67300033569336 0 -1
112.69999694824219 84.69999694824219 -15.574000358581543 0 -1
120.30000305175781 82.9000015258789 -14.616999626159668 0 -1
121.80000305175781 81.4000015258789 -9.369000434875488 1 -1
118.0999984741211 87.4000015258789 -14.064000129699707 0 -1
110.9000015258789 90 -15.720000267028809 0 -1
120.30000305175781 81.80000305175781 -5.645999908447266 1 -1
120.9000015258789 93.19999694824219 -15.51200008392334 0 -1
121.80000305175781 80.9000015258789 -13.649999618530273 0 -1
115.0999984741211 77.80000305175781 -13.432000160217285 0 -1
117 90.69999694824219 -15.87399959564209 0 -1
114.19999694824219 83.0999984741211 -15.279999732971191 0 -1
115.30000305175781 76.9000015258789 -13.52400016784668 0 -1
122 83.69999694824219 -15.65999984741211 0 -1
117.5 94.0999984741211 -13.711999893188477 0 -1
113.19999694824219 82.80000305175781 -15.727999687194824 0 -1
114.80000305175781 88.19999694824219 -16.6299991607666 0 -1
118.69999694824219 77.4000015258789 -12.746999740600586 0 -1
111.4000015258789 85.5 -14.977999687194824 0 -1
111.19999694824219 75.69999694824219 -13.968000411987305 0 -1
119.30000305175781 79.19999694824219 -13.817999839782715 0 -1
119.0999984741211 85.80000305175781 -13.774999618530273 0 -1
116.19999694824219 85.30000305175781 -13.843999862670898 0 -1
112.30000305175781 93.19999694824219 -14.482000350952148 0 -1
113.30000305175781 87.5999984741211 -14.909000396728516 0 -1
118.30000305175781 81.0999984741211 -10.22599983215332 1 -1
113.80000305175781 86.0999984741211 -14.942000389099121 0 -1
111 80.19999694824219 -12.998000144958496 0 -1
118.80000305175781 94.5999984741211 -13.376999855041504 0 -1
113.4000015258789 87.19999694824219 -14.963000297546387 0 -1
115.9000015258789 94.69999694824219 -12.85200023651123 0 -1
117.0999984741211 91.9000015258789 -14.90999984741211 0 -1
110.0999984741211 81.5 -12.52299976348877 0 -1
111.69999694824219 90.4000015258789 -15.380999565124512 0 -1
112.0999984741211 94.80000305175781 -13.182000160217285 0 -1
118.69999694824219 90.80000305175781 -16.444000244140625 0 -1
113.0999984741211 85.19999694824219 -15.97700023651123 0 -1
117.4000015258789 77.9000015258789 -12.366999626159668 0 -1
117.69999694824219 82.5999984741211 -13.96399974822998 0 -1
119.4000015258789 80.5999984741211 -13.505999565124512 0 -1
115.9000015258789 79.30000305175781 -11.53600025177002 0 -1
116.0999984741211 85.9000015258789 -14.204000473022461 0 -1
111.9000015258789 92.0999984741211 -15.175999641418457 0 -1
114.9000015258789 83.30000305175781 -14.550000190734863 0 -1
117.0999984741211 76.5 -12.618000030517578 0 -1
112.5 83.4000015258789 -14.91100025177002 0 -1
114.9000015258789 80.19999694824219 -12.961999893188477 0 -1
114.80000305175781 74.9000015258789 -13.005000114440918 0 -1
121.30000305175781 79.80000305175781 -14.40999984741211 0 -1
114.0999984741211 77 -14.675000190734863 0 -1
116.9000015258789 78.0999984741211 -12.194000244140625 0 -1
113 93.5999984741211 -13.994999885559082 0 -1
119.5 83.19999694824219 -14.609000205993652 0 -1
110.19999694824219 81.4000015258789 -12.340999603271484 0 -1
112.30000305175781 75.80000305175781 -13.854000091552734 0 -1
110.69999694824219 92.69999694824219 -15.70300006866455 0 -1
114.69999694824219 89.4000015258789 -16.929000854492188 0 -1
115.19999694824219 93.4000015258789 -14.91100025177002 0 -1
110.9000015258789 90.0999984741211 -15.70300006866455 0 -1
112.80000305175781 88 -15.890000343322754 0 -1
121.4000015258789 94.80000305175781 -14.668999671936035 0 -1
114.5 78.30000305175781 -13.345000267028809 0 -1
110.30000305175781 86.69999694824219 -14.805999755859375 0 -1
118.5 80.69999694824219 -13.878000259399414 0 -1
116.80000305175781 94.4000015258789 -13.940999984741211 0 -1
118.80000305175781 94.69999694824219 -13.289999961853027 0 -1
112.0999984741211 79.4000015258789 -14.354999542236328 0 -1
122.30000305175781 81.30000305175781 -14.015999794006348 0 -1
118.69999694824219 77.5 -12.20300006866455 0 -1
115.69999694824219 91.80000305175781 -15.814000129699707 0 -1
111.9000015258789 74.69999694824219 -13.82800006866455 0 -1
111.69999694824219 75.0999984741211 -13.923999786376953 0 -1
112.30000305175781 93.30000305175781 -14.397000312805176 0 -1
113.5999984741211 85.4000015258789 -15.545000076293945 0 -1
112.9000015258789 76.9000015258789 -14.359999656677246 0 -1
114.4000015258789 89.4000015258789 -16.899999618530273 0 -1
117.9000015258789 86 -14.220999717712402 0 -1
120.4000015258789 91.5 -15.555999755859375 0 -1
115.0999984741211 87 -15.50100040435791 0 -1
115.69999694824219 92 -15.729999542236328 0 -1
110.19999694824219 81.30000305175781 -12.418999671936035 0 -1
112.5999984741211 78 -14.611000061035156 0 -1
117.80000305175781 79 -12.86400032043457 0 -1
119.19999694824219 89.19999694824219 -16.104999542236328 0 -1
112 78 -14.465999603271484 0 -1
116.5 91.0999984741211 -14.906999588012695 0 -1
113.69999694824219 82.69999694824219 -15.833000183105469 0 -1
114.5999984741211 95 -12.97599983215332 0 -1
115.30000305175781 90.19999694824219 -16.697999954223633 0 -1
113.0999984741211 85 -15.97700023651123 0 -1
120.0999984741211 93 -15.95199966430664 0 -1
112 77.9000015258789 -14.444000244140625 0 -1
119.69999694824219 91.19999694824219 -15.829000473022461 0 -1
119.9000015258789 76 -11.53600025177002 0 -1
113.9000015258789 89 -15.949999809265137 0 -1
113.69999694824219 82.80000305175781 -15.538999557495117 0 -1
116.80000305175781 81.0999984741211 -14.178999900817871 0 -1
117.9000015258789 85.9000015258789 -14.180999755859375 0 -1
118.19999694824219 75.5999984741211 -12.402999877929688 0 -1
121.80000305175781 94.30000305175781 -13.411999702453613 0 -1
119.9000015258789 87.30000305175781 -13.75100040435791 0 -1
114.80000305175781 88.4000015258789 -16.590999603271484 0 -1
114.0999984741211 77.0999984741211 -14.592000007629395 0 -1
111.19999694824219 90.19999694824219 -15.956000328063965 0 -1
116.9000015258789 78.19999694824219 -12.14799976348877 0 -1
112.30000305175781 75.9000015258789 -13.86299991607666 0 -1
117.5999984741211 87.30000305175781 -13.864999771118164 0 -1
112.69999694824219 84.5 -15.526000022888184 0 -1
120.5999984741211 86.80000305175781 -14.211000442504883 0 -1
116.4000015258789 93.80000305175781 -13.897000312805176 0 -1
113 76.19999694824219 -14.369999885559082 0 -1
117.19999694824219 84.4000015258789 -14.79699993133545 0 -1
120.69999694824219 78.80000305175781 -12.975000381469727 0 -1
118.9000015258789 79.5999984741211 -13.736000061035156 0 -1
113.5 80.19999694824219 -14.595999717712402 0 -1
120.69999694824219 86 -14.64799976348877 0 -1
116.30000305175781 92.4000015258789 -13.857000350952148 0 -1
116.5999984741211 89.69999694824219 -15.77299976348877 0 -1
112.9000015258789 76.80000305175781 -14.359999656677246 0 -1
121.4000015258789 81.5 -13.550999641418457 0 -1
114.5999984741211 79.69999694824219 -11.777999877929688 0 -1
121.5999984741211 88.0999984741211 -15.340999603271484 0 -1
117.30000305175781 85.19999694824219 -13.996000289916992 0 -1
119.69999694824219 75.69999694824219 -11.784000396728516 0 -1
122 83.5 -15.586000442504883 0 -1
114.69999694824219 89.30000305175781 -16.93000030517578 0 -1
114.9000015258789 83.0999984741211 -13.878999710083008 0 -1
121.5 92.5 -15.588000297546387 0 -1
117.80000305175781 79.0999984741211 -13.220999717712402 0 -1
115.4000015258789 80.0999984741211 -11.854000091552734 0 -1
122.9000015258789 81.9000015258789 -14.022000312805176 0 -1
112.0999984741211 79.5999984741211 -14.354000091552734 0 -1
114.9000015258789 80 -11.949999809265137 0 -1
114.80000305175781 75.0999984741211 -13.038000106811523 0 -1
113.30000305175781 87.80000305175781 -14.909000396728516 0 -1
116.69999694824219 84.80000305175781 -13.835000038146973 0 -1
118.30000305175781 80.9000015258789 -10.22599983215332 1 -1
118.5999984741211 76.5999984741211 -12.07800006866455 0 -1
114.30000305175781 84 -15.736000061035156 0 -1
112.9000015258789 92.19999694824219 -15.755999565124512 0 -1
120.5999984741211 77.5999984741211 -11.423999786376953 0 -1
120 75.80000305175781 -11.767999649047852 0 -1
120.30000305175781 81.5 -5.690000057220459 1 -1
117.5 76.9000015258789 -12.279999732971191 0 -1
116.4000015258789 94.0999984741211 -12.982000350952148 0 -1
118.5999984741211 92 -15.930000305175781 0 -1
118.30000305175781 94.30000305175781 -13.430000305175781 0 -1
119.19999694824219 89 -16.14299964904785 0 -1
112.4000015258789 88.4000015258789 -15.583999633789062 0 -1
111.80000305175781 94.19999694824219 -13.472999572753906 0 -1
112.19999694824219 77.80000305175781 -14.545000076293945 0 -1
110.9000015258789 89.9000015258789 -15.91100025177002 0 -1
118 85.30000305175781 -14.317999839782715 0 -1
115.30000305175781 76.80000305175781 -13.494000434875488 0 -1
110.30000305175781 86.9000015258789 -14.776000022888184 0 -1
120.5999984741211 86.9000015258789 -14.199000358581543 0 -1
119.80000305175781 91.9000015258789 -15.791999816894531 0 -1
113.19999694824219 82.9000015258789 -15.788999557495117 0 -1
118.0999984741211 87.5 -13.972000122070312 0 -1
121.5 92.5999984741211 -15.54699993133545 0 -1
120.9000015258789 93.30000305175781 -15.510000228881836 0 -1
118.30000305175781 81 -10.303000450134277 1 -1
114.4000015258789 88.80000305175781 -16.957000732421875 0 -1
121 93.9000015258789 -13.930999755859375 0 -1
117.0999984741211 91.80000305175781 -14.89900016784668 0 -1
111.30000305175781 87.5 -15.623000144958496 0 -1
118.4000015258789 81.5 -10.574000358581543 1 -1
120.30000305175781 82.5 -5.915999889373779 1 -1
123 79.9000015258789 -13.791000366210938 0 -1
122.9000015258789 81.80000305175781 -14.055000305175781 0 -1
119.5999984741211 85.80000305175781 -14.182000160217285 0 -1
113.30000305175781 87.69999694824219 -14.996000289916992 0 -1
116.5999984741211 89.5999984741211 -15.763999938964844 0 -1
121.80000305175781 81 -9.33899974822998 1 -1
114.5999984741211 78 -13.595999717712402 0 -1
120.0999984741211 92.80000305175781 -15.824999809265137 0 -1
114 78.4000015258789 -13.843999862670898 0 -1
111.4000015258789 85.5999984741211 -14.994999885559082 0 -1
111.9000015258789 92 -15.133000373840332 0 -1
117.5 76.80000305175781 -12.128000259399414 0 -1
118.19999694824219 93 -15.895000457763672 0 -1
118.4000015258789 94.9000015258789 -12.623000144958496 0 -1
112.5 83.30000305175781 -14.88599967956543 0 -1
111.69999694824219 90.5 -15.4350004196167 0 -1
115.30000305175781 77.30000305175781 -13.75 0 -1
117.0999984741211 76.4000015258789 -12.75100040435791 0 -1
119.0999984741211 84.0999984741211 -14.51099967956543 0 -1
120.69999694824219 85.9000015258789 -14.621000289916992 0 -1
111.9000015258789 74.5 -13.777999877929688 0 -1
121.9000015258789 86.80000305175781 -15.538999557495117 0 -1
112.4000015258789 88.5 -15.63599967956543 0 -1
111 80.5999984741211 -12.730999946594238 0 -1
117.5999984741211 87.5 -13.864999771118164 0 -1
119 84.4000015258789 -14.206000328063965 0 -1
111.80000305175781 76.5999984741211 -14.131999969482422 0 -1
122.30000305175781 81.4000015258789 -9.755000114440918 1 -1
110.69999694824219 92.5999984741211 -15.680999755859375 0 -1
118.5999984741211 92.30000305175781 -15.862000465393066 0 -1
113.4000015258789 87.0999984741211 -14.991999626159668 0 -1
121.5999984741211 88.30000305175781 -15.309000015258789 0 -1
119.5 83.30000305175781 -14.567000389099121 0 -1
121.4000015258789 94.9000015258789 -13.963000297546387 0 -1
112.9000015258789 94.19999694824219 -12.97599983215332 0 -1
114.30000305175781 86 -15.411999702453613 0 -1
117.30000305175781 85 -14.298999786376953 0 -1
119.80000305175781 91.80000305175781 -15.82800006866455 0 -1
111.9000015258789 74.5999984741211 -13.767000198364258 0 -1
113.5999984741211 85.5 -15.729000091552734 0 -1
114.0999984741211 92.5 -15.42300033569336 0 -1
110.80000305175781 87.19999694824219 -15.234000205993652 0 -1
111.19999694824219 74.80000305175781 -13.729999542236328 0 -1
118.69999694824219 93.5 -14.538999557495117 0 -1
111.0999984741211 81.69999694824219 -12.935999870300293 0 -1
110.5 91.4000015258789 -15.640999794006348 0 -1
117.9000015258789 82 -9.53499984741211 1 -1
117.80000305175781 80.69999694824219 -13.859999656677246 0 -1
111.69999694824219 75.19999694824219 -13.881999969482422 0 -1
115.0999984741211 77.4000015258789 -13.862000465393066 0 -1
110.5 74 -12.437999725341797 0 -1
111.80000305175781 94 -13.472999572753906 0 -1
114.5 79.4000015258789 -12.597999572753906 0 -1
112.19999694824219 77.5999984741211 -14.605999946594238 0 -1
114.19999694824219 82.69999694824219 -14.963000297546387 0 -1
120.0999984741211 92.9000015258789 -15.946999549865723 0 -1
120.4000015258789 91.4000015258789 -15.52299976348877 0 -1
115.5999984741211 93.4000015258789 -13.859000205993652 0 -1
116 75.5999984741211 -12.805999755859375 0 -1
112.9000015258789 74.69999694824219 -13.944999694824219 0 -1
118.4000015258789 94.80000305175781 -12.821999549865723 0 -1
112.69999694824219 84.5999984741211 -15.522000312805176 0 -1
113.0999984741211 85.0999984741211 -15.946999549865723 0 -1
112.19999694824219 93 -14.652999877929688 0 -1
111.9000015258789 90.30000305175781 -15.545999526977539 0 -1
111.5999984741211 80.30000305175781 -13.60200023651123 0 -1
114.19999694824219 82.80000305175781 -14.852999687194824 0 -1
112.9000015258789 94.0999984741211 -13.711999893188477 0 -1
110.0999984741211 81.9000015258789 -12.593000411987305 0 -1
111.5 80.69999694824219 -13.965999603271484 0 -1
121 93.69999694824219 -14.95300006866455 0 -1
111.30000305175781 87.30000305175781 -15.298999786376953 0 -1
118.9000015258789 79.5 -13.57800006866455 0 -1
113.4000015258789 87 -14.989999771118164 0 -1
121.5999984741211 88.19999694824219 -15.324999809265137 0 -1
115.30000305175781 90.5999984741211 -16.56599998474121 0 -1
117.30000305175781 85.0999984741211 -14.37399959564209 0 -1
112.5999984741211 77.9000015258789 -14.628000259399414 0 -1
112.80000305175781 87.9000015258789 -15.86400032043457 0 -1
115.19999694824219 74.0999984741211 -13.043999671936035 0 -1
117.5 77 -12.338000297546387 0 -1
113.80000305175781 90.0999984741211 -16.41200065612793 0 -1
117.19999694824219 84.30000305175781 -14.74899959564209 0 -1
121.69999694824219 83 -15.189000129699707 0 -1
118.5 80.80000305175781 -13.836000442504883 0 -1
116.80000305175781 94.30000305175781 -13.961000442504883 0 -1
119.4000015258789 81.19999694824219 -7.73199987411499 1 -1
118.9000015258789 94.9000015258789 -12.720000267028809 0 -1
116.30000305175781 92.5 -13.98900032043457 0 -1
114.0999984741211 92.5999984741211 -15.510000228881836 0 -1
114.30000305175781 85.9000015258789 -15.515999794006348 0 -1
118.30000305175781 80.80000305175781 -13.836999893188477 0 -1
117.69999694824219 82.5 -13.772000312805176 0 -1
110.19999694824219 81 -11.998000144958496 0 -1
120 75.9000015258789 -11.494999885559082 0 -1
110.5 91.5 -15.717000007629395 0 -1
113.5999984741211 84.5 -15.840999603271484 0 -1
116 75.69999694824219 -12.75100040435791 0 -1
111 80.4000015258789 -12.998000144958496 0 -1
112.0999984741211 94.9000015258789 -13.133999824523926 0 -1
114.9000015258789 80.0999984741211 -12.442999839782715 0 -1
116.4000015258789 94.19999694824219 -12.90999984741211 0 -1
118.80000305175781 78.4000015258789 -12.58899974822998 0 -1
115.0999984741211 77.5 -13.680000305175781 0 -1
116.5999984741211 89.80000305175781 -15.638999938964844 0 -1
119.5 82.5999984741211 -6.050000190734863 1 -1
121.30000305175781 79.69999694824219 -13.218000411987305 0 -1
110.5 74.0999984741211 -12.585000038146973 0 -1
112.30000305175781 76 -14.086999893188477 0 -1
122.30000305175781 80.9000015258789 -13.609999656677246 0 -1
113 75.30000305175781 -13.736000061035156 0 -1
110.0999984741211 81.80000305175781 -12.527000427246094 0 -1
115.4000015258789 80.19999694824219 -11.592000007629395 0 -1
110.30000305175781 86.80000305175781 -14.791000366210938 0 -1
113.19999694824219 83 -15.847000122070312 0 -1
121.0999984741211 86.9000015258789 -14.479000091552734 0 -1
117.0999984741211 76.30000305175781 -12.618000030517578 0 -1
121.9000015258789 86.69999694824219 -15.411999702453613 0 -1
112.30000305175781 93.4000015258789 -14.39900016784668 0 -1
115.0999984741211 86.5999984741211 -15.515999794006348 0 -1
111.19999694824219 75 -13.729999542236328 0 -1
111.5999984741211 80.19999694824219 -13.5649995803833 0 -1
111.0999984741211 81.9000015258789 -12.979000091552734 0 -1
110.19999694824219 80.9000015258789 -11.99899959564209 0 -1
119.0999984741211 84.19999694824219 -14.732000350952148 0 -1
119.5999984741211 85.9000015258789 -13.854999542236328 0 -1
120.30000305175781 81.5999984741211 -5.665999889373779 1 -1
121.80000305175781 81.0999984741211 -9.442999839782715 1 -1
120.9000015258789 93.4000015258789 -15.51200008392334 0 -1
119.30000305175781 78.5 -12.835000038146973 0 -1
115.19999694824219 74 -13.036999702453613 0 -1
112.0999984741211 79.5 -14.390999794006348 0 -1
120.4000015258789 91.5999984741211 -15.489999771118164 0 -1
120 87.19999694824219 -13.597999572753906 0 -1
113.9000015258789 87.0999984741211 -14.906000137329102 0 -1
121 93.80000305175781 -14.760000228881836 0 -1
113.80000305175781 90 -16.06999969482422 0 -1
111 80.5 -12.482000350952148 0 -1
112.5 83.19999694824219 -14.154000282287598 0 -1
115.30000305175781 77.19999694824219 -13.562000274658203 0 -1
118.80000305175781 78.5 -13.020000457763672 0 -1
113.5 81.5999984741211 -14.935999870300293 0 -1
116.5 91 -14.864999771118164 0 -1
113 92.69999694824219 -15.581000328063965 0 -1
123 80.0999984741211 -13.595999717712402 0 -1
117 77.5 -12.484999656677246 0 -1
112.19999694824219 92.80000305175781 -14.652999877929688 0 -1
115.69999694824219 92.0999984741211 -15.656999588012695 0 -1
117.0999984741211 91.69999694824219 -14.869000434875488 0 -1
111.69999694824219 90.5999984741211 -15.326000213623047 0 -1
113.69999694824219 85.19999694824219 -15.324000358581543 0 -1
121.0999984741211 86.80000305175781 -14.47599983215332 0 -1
113 92.9000015258789 -14.935999870300293 0 -1
112 77.80000305175781 -14.461000442504883 0 -1
115.5999984741211 93.19999694824219 -14.239999771118164 0 -1
111.0999984741211 81.80000305175781 -12.98799991607666 0 -1
111.19999694824219 90.30000305175781 -15.946000099182129 0 -1
118.0999984741211 86.5999984741211 -13.996000289916992 0 -1
118.5 80.5 -13.87399959564209 0 -1
116.80000305175781 94.5999984741211 -12.727999687194824 0 -1
112.80000305175781 84.0999984741211 -15.32800006866455 0 -1
118.19999694824219 93.4000015258789 -14.699000358581543 0 -1
118.5999984741211 77 -12.704999923706055 0 -1
112.30000305175781 93.5 -14.440999984741211 0 -1
115.0999984741211 86.69999694824219 -15.520999908447266 0 -1
114.0999984741211 77.19999694824219 -14.574999809265137 0 -1
116.9000015258789 78.30000305175781 -12.194000244140625 0 -1
119.30000305175781 78.4000015258789 -11.986000061035156 0 -1
114.69999694824219 89.19999694824219 -16.930999755859375 0 -1
110.69999694824219 92.5 -15.918999671936035 0 -1
114.9000015258789 83 -13.96500015258789 0 -1
118 82.5999984741211 -13.758000373840332 0 -1
118.5999984741211 92.4000015258789 -16.47599983215332 0 -1
114.4000015258789 88.69999694824219 -16.975000381469727 0 -1
118.19999694824219 76 -12.935999870300293 0 -1
120.0999984741211 92.69999694824219 -15.857000350952148 0 -1
114.9000015258789 79.9000015258789 -11.987000465393066 0 -1
114.80000305175781 75.19999694824219 -13.00100040435791 0 -1
116.5 90.9000015258789 -14.965999603271484 0 -1
110.80000305175781 87.0999984741211 -15.270999908447266 0 -1
117 90.80000305175781 -15.895999908447266 0 -1
120.5999984741211 77.69999694824219 -13.46500015258789 0 -1
119 84.30000305175781 -14.439000129699707 0 -1
120.69999694824219 78.69999694824219 -13.907999992370605 0 -1
119.4000015258789 81.4000015258789 -7.73199987411499 1 -1
112.0999984741211 79.69999694824219 -14.336000442504883 0 -1
113.30000305175781 86.30000305175781 -15.92199993133545 0 -1
114.69999694824219 89.0999984741211 -16.993999481201172 0 -1
116.69999694824219 84.9000015258789 -14.395000457763672 0 -1
114.5 79.5 -11.888999938964844 0 -1
123 80 -13.847000122070312 0 -1
117.4000015258789 79.69999694824219 -13.118000030517578 0 -1
115.5999984741211 93.30000305175781 -14.0649995803833 0 -1
121.30000305175781 79 -12.904000282287598 0 -1
117.80000305175781 80.80000305175781 -13.937999725341797 0 -1
110.5999984741211 76.19999694824219 -13.682000160217285 0 -1
118.4000015258789 81.9000015258789 -9.380999565124512 1 -1
112.80000305175781 84.19999694824219 -15.342000007629395 0 -1
116.4000015258789 94 -13.819000244140625 0 -1
121.80000305175781 95 -14.564000129699707 0 -1
115.19999694824219 93.5 -14.685999870300293 0 -1
118.69999694824219 93.5999984741211 -14.991000175476074 0 -1
120.30000305175781 82.5999984741211 -5.870999813079834 1 -1
111.69999694824219 74.80000305175781 -13.923999786376953 0 -1
119.9000015258789 75.80000305175781 -11.53600025177002 0 -1
113.5 90.80000305175781 -16.525999069213867 0 -1
112 77.69999694824219 -14.385000228881836 0 -1
116.30000305175781 92.5999984741211 -13.857000350952148 0 -1
118.9000015258789 79.4000015258789 -13.645999908447266 0 -1
121.19999694824219 87.9000015258789 -15.472000122070312 0 -1
118.69999694824219 76.0999984741211 -11.96399974822998 0 -1
113 75.5 -13.70300006866455 0 -1
115.30000305175781 90.5 -16.548999786376953 0 -1
119.9000015258789 87.0999984741211 -13.663000106811523 0 -1
115.19999694824219 74.19999694824219 -13.022000312805176 0 -1
121 93.5999984741211 -14.888999938964844 0 -1
121.5 92.69999694824219 -15.628999710083008 0 -1
111.30000305175781 87.4000015258789 -15.515000343322754 0 -1
122.9000015258789 81.69999694824219 -14.140999794006348 0 -1
118.9000015258789 94.80000305175781 -12.829000473022461 0 -1
112.4000015258789 88.0999984741211 -15.767000198364258 0 -1
113.0999984741211 87 -14.972000122070312 0 -1
114.0999984741211 77.30000305175781 -14.592000007629395 0 -1
110.19999694824219 81.0999984741211 -12.213000297546387 0 -1
112.69999694824219 87.5 -15.083999633789062 0 -1
113.5999984741211 84.5999984741211 -15.807000160217285 0 -1
120.5999984741211 87 -14.241000175476074 0 -1
122.30000305175781 81 -13.59000015258789 0 -1
114 78.5 -13.699000358581543 0 -1
111.4000015258789 85.69999694824219 -14.894000053405762 0 -1
117.19999694824219 84.19999694824219 -14.79699993133545 0 -1
118 82.5 -13.694000244140625 0 -1
120.69999694824219 78.5999984741211 -12.878999710083008 0 -1
111.80000305175781 76.5 -13.993000030517578 0 -1
119.0999984741211 84 -14.732000350952148 0 -1
120.69999694824219 85.80000305175781 -14.347999572753906 0 -1
111.0999984741211 81.5 -12.994999885559082 0 -1
121.4000015258789 94.5 -13.489999771118164 0 -1
116.80000305175781 81.30000305175781 -14.407999992370605 0 -1
117.30000305175781 85.4000015258789 -13.996000289916992 0 -1
118.69999694824219 76.19999694824219 -11.958000183105469 0 -1
111.5 80.80000305175781 -13.503999710083008 0 -1
112.5999984741211 78.30000305175781 -14.723999977111816 0 -1
115.4000015258789 80.30000305175781 -11.854000091552734 0 -1
119.80000305175781 91.69999694824219 -15.859999656677246 0 -1
113.19999694824219 83.0999984741211 -15.743000030517578 0 -1
116.69999694824219 84.5999984741211 -13.835000038146973 0 -1
118.19999694824219 93.19999694824219 -15.753999710083008 0 -1
118.30000305175781 80.69999694824219 -13.87399959564209 0 -1
118.5999984741211 76.80000305175781 -12.244999885559082 0 -1
114.80000305175781 88.5 -16.816999435424805 0 -1
120.5999984741211 77.80000305175781 -12.303000450134277 0 -1
119.69999694824219 91.30000305175781 -15.859000205993652 0 -1
117.69999694824219 82.9000015258789 -14.22700023651123 0 -1
118.4000015258789 81.80000305175781 -9.633000373840332 1 -1
121.80000305175781 81.69999694824219 -9.458999633789062 1 -1
120.9000015258789 94 -13.930999755859375 0 -1
116 75.30000305175781 -12.946999549865723 0 -1
111 80.80000305175781 -12.961999893188477 0 -1
118.5999984741211 92.19999694824219 -15.930000305175781 0 -1
119.5999984741211 86 -13.763999938964844 0 -1
121.4000015258789 81.19999694824219 -9.29699993133545 1 -1
111.19999694824219 74.9000015258789 -13.651000022888184 0 -1
117.0999984741211 92.0999984741211 -14.90999984741211 0 -1
112.19999694824219 77.5 -14.527000427246094 0 -1
117.5999984741211 87.0999984741211 -14.034000396728516 0 -1
111.9000015258789 81.0999984741211 -13.972000122070312 0 -1
120 76 -11.576000213623047 0 -1
110.69999694824219 77 -13.678000450134277 0 -1
121.69999694824219 83.9000015258789 -15.309000015258789 0 -1
122.9000015258789 81.0999984741211 -13.718999862670898 0 -1
112.19999694824219 92.9000015258789 -14.567999839782715 0 -1
113.69999694824219 85 -15.324000358581543 0 -1
112.9000015258789 74.5999984741211 -13.803999900817871 0 -1
110.5 91.5999984741211 -15.640999794006348 0 -1
116.30000305175781 76.30000305175781 -12.923999786376953 0 -1
117 91 -15.918000221252441 0 -1
117.30000305175781 85.5 -13.899999618530273 0 -1
110.9000015258789 89.80000305175781 -15.901000022888184 0 -1
113.4000015258789 86.9000015258789 -14.991999626159668 0 -1
114.0999984741211 93.69999694824219 -13.944000244140625 0 -1
111.4000015258789 85.80000305175781 -15.486000061035156 0 -1
114.5 79.5999984741211 -11.777999877929688 0 -1
114.19999694824219 82.9000015258789 -15.36400032043457 0 -1
112.9000015258789 94 -13.706000328063965 0 -1
116.80000305175781 94.69999694824219 -12.987000465393066 0 -1
118.5 80.4000015258789 -13.758999824523926 0 -1
113.5 81.5 -14.901000022888184 0 -1
113.30000305175781 86.5 -15.92199993133545 0 -1
111.30000305175781 87.19999694824219 -15.62600040435791 0 -1
113 92.80000305175781 -14.975000381469727 0 -1
117 77.5999984741211 -12.427000045776367 0 -1
119.19999694824219 88.9000015258789 -16.079999923706055 0 -1
115 80.9000015258789 -12.505999565124512 0 -1
118.0999984741211 86.69999694824219 -13.984000205993652 0 -1
113.9000015258789 87.19999694824219 -14.942000389099121 0 -1
114.5999984741211 77.9000015258789 -13.631999969482422 0 -1
112.80000305175781 84 -15.246000289916992 0 -1
114.69999694824219 91.0999984741211 -16.645000457763672 0 -1
110.69999694824219 92.4000015258789 -15.958000183105469 0 -1
111.69999694824219 90.19999694824219 -15.553000450134277 0 -1
119.4000015258789 81.30000305175781 -5.9079999923706055 1 -1
111.80000305175781 93.9000015258789 -13.92300033569336 0 -1
120.0999984741211 92.5999984741211 -15.824999809265137 0 -1
119.80000305175781 92.0999984741211 -15.791999816894531 0 -1
117 90.9000015258789 -15.906999588012695 0 -1
114.30000305175781 85.80000305175781 -15.722999572753906 0 -1
115.30000305175781 77.0999984741211 -13.770000457763672 0 -1
112.9000015258789 74.5 -13.961999893188477 0 -1
115.5 82.0999984741211 -12.961999893188477 0 -1
114.4000015258789 88.5999984741211 -16.937000274658203 0 -1
117.0999984741211 76.69999694824219 -12.883000373840332 0 -1
113.0999984741211 86.80000305175781 -14.972000122070312 0 -1
117.4000015258789 79.5 -12.715999603271484 0 -1
120.30000305175781 82.30000305175781 -5.473999977111816 1 -1
120.5 90.9000015258789 -15.28600025177002 0 -1
112.69999694824219 87.30000305175781 -15.083999633789062 0 -1
119 84.19999694824219 -14.550999641418457 0 -1
113.69999694824219 85.0999984741211 -15.475000381469727 0 -1
110.0999984741211 81.69999694824219 -12.52299976348877 0 -1
119.30000305175781 78.80000305175781 -11.913999557495117 0 -1
112.0999984741211 95 -13.182000160217285 0 -1
112.30000305175781 93.5999984741211 -14.314000129699707 0 -1
113.30000305175781 86.4000015258789 -15.935999870300293 0 -1
114.9000015258789 81.80000305175781 -13.079999923706055 0 -1
111.19999694824219 90.4000015258789 -15.973999977111816 0 -1
112.30000305175781 76.0999984741211 -14.277000427246094 0 -1
113.4000015258789 86.80000305175781 -14.989999771118164 0 -1
116.30000305175781 93.69999694824219 -13.942999839782715 0 -1
117.4000015258789 79.5999984741211 -12.979000091552734 0 -1
110.80000305175781 87.5 -15.864999771118164 0 -1
111.19999694824219 75.0999984741211 -13.821000099182129 0 -1
114.0999984741211 93.80000305175781 -13.795000076293945 0 -1
121.30000305175781 79.0999984741211 -12.994999885559082 0 -1
115.30000305175781 90.4000015258789 -16.56599998474121 0 -1
118.19999694824219 75.9000015258789 -12.635000228881836 0 -1
116.4000015258789 92.30000305175781 -13.920000076293945 0 -1
119.5 82.5 -6.046000003814697 1 -1
113.80000305175781 89.9000015258789 -16.070999145507812 0 -1
119.4000015258789 81 -8.128000259399414 1 -1
111.69999694824219 74.9000015258789 -13.881999969482422 0 -1
119.69999694824219 91.5 -15.890999794006348 0 -1
111.5999984741211 80.0999984741211 -13.520000457763672 0 -1
113 75.4000015258789 -14.057999610900879 0 -1
112.19999694824219 92.69999694824219 -14.592000007629395 0 -1
111.80000305175781 76.30000305175781 -13.993000030517578 0 -1
113.5999984741211 84.69999694824219 -15.774999618530273 0 -1
120.4000015258789 91.69999694824219 -15.423999786376953 0 -1
111.5 80.5 -13.965999603271484 0 -1
112.5 83.0999984741211 -14.121999740600586 0 -1
113.5 90.69999694824219 -16.527000427246094 0 -1
118.80000305175781 78.5999984741211 -12.58899974822998 0 -1
112 95 -12.967000007629395 0 -1
114 94.5 -13.494999885559082 0 -1
116.80000305175781 81.4000015258789 -14.279000282287598 0 -1
117.30000305175781 85.30000305175781 -13.947999954223633 0 -1
112.30000305175781 76.19999694824219 -14.373000144958496 0 -1
110.9000015258789 89.5999984741211 -15.901000022888184 0 -1
120 87.9000015258789 -14.23900032043457 0 -1
122.30000305175781 81.0999984741211 -13.609999656677246 0 -1
121.0999984741211 86.19999694824219 -14.822999954223633 0 -1
117.19999694824219 84.0999984741211 -14.470999717712402 0 -1
117.9000015258789 82.0999984741211 -9.079000473022461 1 -1
111.9000015258789 80.9000015258789 -13.802000045776367 0 -1
115.69999694824219 88.0999984741211 -15.829000473022461 0 -1
118.5999984741211 76.9000015258789 -12.748000144958496 0 -1
118.19999694824219 93.30000305175781 -14.774999618530273 0 -1
116.9000015258789 77.9000015258789 -12.088000297546387 0 -1
114.30000305175781 85.69999694824219 -15.88700008392334 0 -1
112.9000015258789 93.9000015258789 -13.79699993133545 0 -1
117.69999694824219 82.69999694824219 -13.930000305175781 0 -1
120.30000305175781 81.19999694824219 -7.570000171661377 1 -1
111.9000015258789 90.19999694824219 -15.597999572753906 0 -1
120.5 91 -15.416999816894531 0 -1
113.9000015258789 87.4000015258789 -15.609999656677246 0 -1
116.9000015258789 78 -11.61299991607666 0 -1
115.19999694824219 93.5999984741211 -14.604000091552734 0 -1
112.5999984741211 78.19999694824219 -14.588000297546387 0 -1
121.4000015258789 94.5999984741211 -13.59000015258789 0 -1
118 82.9000015258789 -14.234999656677246 0 -1
111.80000305175781 93.69999694824219 -14.402000427246094 0 -1
119.0999984741211 84.4000015258789 -14.317999839782715 0 -1
120.5999984741211 86.0999984741211 -14.505999565124512 0 -1
119.69999694824219 91.4000015258789 -15.805000305175781 0 -1
121.4000015258789 81.30000305175781 -13.630999565124512 0 -1
117.0999984741211 92 -14.918999671936035 0 -1
115.19999694824219 77.4000015258789 -12.673999786376953 0 -1
116.80000305175781 94.5 -12.86299991607666 0 -1
118.5 80.5999984741211 -13.855999946594238 0 -1
119.9000015258789 76.69999694824219 -11.576000213623047 0 -1
120.9000015258789 94.0999984741211 -13.494000434875488 0 -1
116.4000015258789 77 -12.937999725341797 0 -1
116.69999694824219 84.5 -13.916999816894531 0 -1
111.5 80.4000015258789 -13.937999725341797 0 -1
113.80000305175781 89.80000305175781 -15.980999946594238 0 -1
113 93 -14.82699966430664 0 -1
117 77.80000305175781 -12.088000297546387 0 -1
111.9000015258789 81 -13.833999633789062 0 -1
118.80000305175781 78.69999694824219 -12.331000328063965 0 -1
116.5 90.80000305175781 -15.623000144958496 0 -1
111.5999984741211 80 -13.616000175476074 0 -1
123 80.69999694824219 -13.70199966430664 0 -1
115.0999984741211 87.30000305175781 -15.881999969482422 0 -1
117.5 77.0999984741211 -12.279999732971191 0 -1
121.80000305175781 81.80000305175781 -13.527000427246094 0 -1
120.5999984741211 76.9000015258789 -11.61400032043457 0 -1
118.9000015258789 79.80000305175781 -13.758999824523926 0 -1
110.69999694824219 92.30000305175781 -15.932999610900879 0 -1
116.5999984741211 89.9000015258789 -15.616000175476074 0 -1
111.19999694824219 90.5999984741211 -15.65999984741211 0 -1
117 91.0999984741211 -15.906999588012695 0 -1
110.9000015258789 89.69999694824219 -15.890999794006348 0 -1
115.5999984741211 87 -14.67300033569336 0 -1
111 80.69999694824219 -12.810999870300293 0 -1
112.0999984741211 79.80000305175781 -14.354000091552734 0 -1
121 93.5 -14.95300006866455 0 -1
114.80000305175781 91.69999694824219 -15.748000144958496 0 -1
110.69999694824219 76.9000015258789 -13.680999755859375 0 -1
121.5 92.80000305175781 -14.918999671936035 0 -1
117 77.69999694824219 -12.901000022888184 0 -1
115.30000305175781 91.9000015258789 -15.904999732971191 0 -1
121.9000015258789 86.5999984741211 -15.361000061035156 0 -1
115.4000015258789 79.4000015258789 -11.54800033569336 0 -1
121.19999694824219 88 -15.446000099182129 0 -1
121.0999984741211 86.0999984741211 -14.800999641418457 0 -1
114.4000015258789 89 -16.64299964904785 0 -1
114.5 79.69999694824219 -11.574999809265137 0 -1
122 83.80000305175781 -15.809000015258789 0 -1
120.4000015258789 91.9000015258789 -15.423999786376953 0 -1
115.0999984741211 87.4000015258789 -16.274999618530273 0 -1
113.69999694824219 85.4000015258789 -15.782999992370605 0 -1
112.4000015258789 88.19999694824219 -15.583999633789062 0 -1
119.19999694824219 88.80000305175781 -16.148000717163086 0 -1
112 77.5999984741211 -14.605999946594238 0 -1
114 94.69999694824219 -12.940999984741211 0 -1
116.5 90.69999694824219 -15.66100025177002 0 -1
118.0999984741211 86.80000305175781 -13.994000434875488 0 -1
111.0999984741211 81.5999984741211 -12.993000030517578 0 -1
117.5999984741211 87.19999694824219 -13.899999618530273 0 -1
120.69999694824219 78 -12.458000183105469 0 -1
112.69999694824219 87.4000015258789 -15.187000274658203 0 -1
119 84.0999984741211 -14.574999809265137 0 -1
118.5999984741211 77.19999694824219 -12.774999618530273 0 -1
116.30000305175781 76.4000015258789 -12.930000305175781 0 -1
117.9000015258789 82.30000305175781 -9.079000473022461 1 -1
117.80000305175781 80.4000015258789 -13.71500015258789 0 -1
117.0999984741211 76.5999984741211 -12.663000106811523 0 -1
110.19999694824219 78.69999694824219 -11.99899959564209 0 -1
111.69999694824219 90.30000305175781 -15.4350004196167 0 -1
113.5 81.9000015258789 -14.98900032043457 0 -1
113.30000305175781 86.0999984741211 -15.994000434875488 0 -1
120.5999984741211 86.19999694824219 -14.527000427246094 0 -1
113 75.5999984741211 -14.286999702453613 0 -1
115 81 -12.984000205993652 0 -1
118.69999694824219 93.19999694824219 -14.99899959564209 0 -1
120.30000305175781 82.19999694824219 -5.5929999351501465 1 -1
110 75.19999694824219 -13.420000076293945 0 -1
120.30000305175781 81.4000015258789 -5.665999889373779 1 -1
116.30000305175781 93.80000305175781 -13.880999565124512 0 -1
118.5999984741211 92.5999984741211 -16.211000442504883 0 -1
118.19999694824219 76.19999694824219 -12.149999618530273 0 -1
111.80000305175781 76.4000015258789 -13.824000358581543 0 -1
113.0999984741211 86.9000015258789 -14.88700008392334 0 -1
119.5999984741211 85.5999984741211 -14.197999954223633 0 -1
113.19999694824219 83.19999694824219 -15.767000198364258 0 -1
117.4000015258789 79.4000015258789 -12.979000091552734 0 -1
116.80000305175781 81.19999694824219 -14.331999778747559 0 -1
119.4000015258789 80.9000015258789 -8.598999977111816 1 -1
116.5999984741211 90.0999984741211 -15.850000381469727 0 -1
111.30000305175781 87.0999984741211 -15.586999893188477 0 -1
117.69999694824219 82.80000305175781 -14.152000427246094 0 -1
116.4000015258789 92.4000015258789 -13.824000358581543 0 -1
114.9000015258789 81.9000015258789 -12.991999626159668 0 -1
116.69999694824219 84.69999694824219 -13.916999816894531 0 -1
111.5 80.5999984741211 -13.979000091552734 0 -1
115.69999694824219 88.30000305175781 -15.829000473022461 0 -1
121.5 92.9000015258789 -14.835000038146973 0 -1
112.4000015258789 88.30000305175781 -15.645000457763672 0 -1
115.30000305175781 74.4000015258789 -13.154000282287598 0 -1
110.80000305175781 87.4000015258789 -15.812000274658203 0 -1
118.4000015258789 81.69999694824219 -10.574000358581543 1 -1
117.5 77.30000305175781 -12.17300033569336 0 -1
121.5999984741211 89 -15.329000473022461 0 -1
113.69999694824219 85.5 -15.739999771118164 0 -1
117.9000015258789 82.19999694824219 -13.753999710083008 0 -1
117.80000305175781 80.5 -13.854999542236328 0 -1
112.5 83 -14.154000282287598 0 -1
120.30000305175781 82.4000015258789 -5.870999813079834 1 -1
119.69999694824219 91.5999984741211 -15.859999656677246 0 -1
111.69999694824219 75 -13.923999786376953 0 -1
