VERSION .7
FIELDS x y z label object
SIZE 4 4 4 4 4
TYPE F F F I I
COUNT 1 1 1 1 1
WIDTH 868
HEIGHT 1
POINTS 868
VIEWPOINT 0 0 0 1 0 0 0
DATA ascii
117.9000015258789 92.69999694824219 -14.722000122070312 0 -1
114.5999984741211 76.5 -13.41100025177002 0 -1
113.5 88.30000305175781 -15.954999923706055 0 -1
113.30000305175781 79.69999694824219 -13.991000175476074 0 -1
111.80000305175781 87.4000015258789 -15.748000144958496 0 -1
116 85.4000015258789 -14.95199966430664 0 -1
114.5 76.9000015258789 -14.404999732971191 0 -1
118.4000015258789 83 -13.758000373840332 0 -1
122.19999694824219 84.80000305175781 -14.35200023651123 0 -1
122 94.5999984741211 -13.093999862670898 0 -1
120.69999694824219 91.5 -16.624000549316406 0 -1
120.0999984741211 80.9000015258789 -13.626999855041504 0 -1
122.5 81 -13.774999618530273 0 -1
114.5999984741211 87.80000305175781 -14.86400032043457 0 -1
119.9000015258789 85.5999984741211 -13.987000465393066 0 -1
122.5999984741211 80.5999984741211 -13.687999725341797 0 -1
115.5999984741211 84.5 -14.984999656677246 0 -1
114.19999694824219 88.5 -15.571000099182129 0 -1
110.80000305175781 80.4000015258789 -12.180999755859375 0 -1
119.30000305175781 93.30000305175781 -14.98799991607666 0 -1
121.4000015258789 84.19999694824219 -13.824000358581543 0 -1
121.5999984741211 90.80000305175781 -16.134000778198242 0 -1
118.4000015258789 83.4000015258789 -14.144000053405762 0 -1
118.0999984741211 81 -13.847999572753906 0 -1
117.19999694824219 80.5999984741211 -11.777000427246094 0 -1
122.9000015258789 86.30000305175781 -14.961999893188477 0 -1
115 90.5 -16.488000869750977 0 -1
113.0999984741211 75.19999694824219 -13.220999717712402 0 -1
117.5 83.5999984741211 -14.100000381469727 0 -1
116.0999984741211 91.80000305175781 -15.704000473022461 0 -1
117.80000305175781 87.4000015258789 -13.932999610900879 0 -1
121.80000305175781 87.30000305175781 -14.095000267028809 0 -1
114.19999694824219 75.0999984741211 -14.053999900817871 0 -1
114.69999694824219 81.5 -14.215999603271484 0 -1
120.9000015258789 83.69999694824219 -14.25 0 -1
116.5999984741211 79 -12.82800006866455 0 -1
118.69999694824219 83.80000305175781 -14.354999542236328 0 -1
117.0999984741211 86.5 -13.744999885559082 0 -1
120 78.5 -11.880999565124512 0 -1
120.19999694824219 91.5 -16.011999130249023 0 -1
111.69999694824219 88.5999984741211 -15.786999702453613 0 -1
112.5 80.5999984741211 -12.956000328063965 0 -1
116 85.5 -14.774999618530273 0 -1
114.30000305175781 76.19999694824219 -13.807999610900879 0 -1
118.30000305175781 87.5 -13.855999946594238 0 -1
113.5999984741211 90.19999694824219 -16.035999298095703 0 -1
112.69999694824219 74.69999694824219 -13.85200023651123 0 -1
122 94.69999694824219 -12.843999862670898 0 -1
112.19999694824219 86.19999694824219 -15.902999877929688 0 -1
115.9000015258789 88.30000305175781 -15.314000129699707 0 -1
116.5 85.30000305175781 -13.819000244140625 0 -1
119.69999694824219 80.5999984741211 -13.819000244140625 0 -1
120.69999694824219 91.4000015258789 -16.549999237060547 0 -1
122.5 80.9000015258789 -13.649999618530273 0 -1
119.4000015258789 91.0999984741211 -13.496999740600586 0 -1
110.69999694824219 82.69999694824219 -13.508000373840332 0 -1
121.0999984741211 80.5999984741211 -13.675999641418457 0 -1
117.30000305175781 79.80000305175781 -11.717000007629395 0 -1
114.9000015258789 75.30000305175781 -13.961000442504883 0 -1
115.5999984741211 84.5999984741211 -15.505000114440918 0 -1
118.19999694824219 83.69999694824219 -14.369000434875488 0 -1
122 79.30000305175781 -12.826000213623047 0 -1
119.30000305175781 93.19999694824219 -14.961999893188477 0 -1
120.0999984741211 81 -13.619000434875488 0 -1
122.0999984741211 79.9000015258789 -13.548999786376953 0 -1
121.69999694824219 90.5999984741211 -12.302000045776367 1 -1
118.5 82 -13.484999656677246 0 -1
111.9000015258789 84.69999694824219 -15.550000190734863 0 -1
113.69999694824219 91.69999694824219 -15.689000129699707 0 -1
114.4000015258789 81 -14.3100004196167 0 -1
114.9000015258789 90.69999694824219 -16.410999298095703 0 -1
119.5 76.80000305175781 -12.180999755859375 0 -1
122.0999984741211 80.0999984741211 -13.548999786376953 0 -1
114.5999984741211 76.30000305175781 -13.58899974822998 0 -1
115.4000015258789 90 -16.39699935913086 0 -1
111.80000305175781 87.19999694824219 -15.586999893188477 0 -1
119.30000305175781 75.9000015258789 -12.774999618530273 0 -1
121.5999984741211 80.19999694824219 -13.607000350952148 0 -1
112.80000305175781 81.5999984741211 -13.51099967956543 0 -1
115 75.19999694824219 -13.961000442504883 0 -1
117 87.4000015258789 -13.927000045776367 0 -1
116.4000015258789 94.5 -12.79699993133545 0 -1
114 88.19999694824219 -15.152999877929688 0 -1
120.9000015258789 82.19999694824219 -13.607999801635742 0 -1
116.30000305175781 78.80000305175781 -11.743000030517578 0 -1
116.5 85.19999694824219 -13.958999633789062 0 -1
118.69999694824219 83.9000015258789 -14.407999992370605 0 -1
114.30000305175781 87.4000015258789 -14.859000205993652 0 -1
119.19999694824219 82.19999694824219 -13.680000305175781 0 -1
112.0999984741211 84.30000305175781 -15.76200008392334 0 -1
114.5999984741211 87.5999984741211 -14.899999618530273 0 -1
119.5 92.4000015258789 -13.571999549865723 0 -1
117.5999984741211 77.4000015258789 -12.263999938964844 0 -1
120.4000015258789 85.9000015258789 -13.753999710083008 0 -1
112 88.5 -15.645000457763672 0 -1
121.5 85 -13.871000289916992 0 -1
111.5999984741211 87.80000305175781 -15.829000473022461 0 -1
121.30000305175781 87.69999694824219 -15.545000076293945 0 -1
114.30000305175781 76.0999984741211 -13.986000061035156 0 -1
114.4000015258789 82 -13.968000411987305 0 -1
117.69999694824219 80.30000305175781 -12.135000228881836 0 -1
118.9000015258789 76.80000305175781 -12.1899995803833 0 -1
117.5 83.80000305175781 -14.100000381469727 0 -1
117 87.30000305175781 -13.857999801635742 0 -1
111.19999694824219 84.80000305175781 -15.277999877929688 0 -1
119 86.80000305175781 -13.833000183105469 0 -1
120.5 84.69999694824219 -14.793999671936035 0 -1
115.30000305175781 84.80000305175781 -15.343000411987305 0 -1
118.9000015258789 92.19999694824219 -14.65999984741211 0 -1
119.80000305175781 79.9000015258789 -13.598999977111816 0 -1
113.5999984741211 76.9000015258789 -13.697999954223633 0 -1
122.69999694824219 86.69999694824219 -14.901000022888184 0 -1
114.5 86.19999694824219 -15.423999786376953 0 -1
111.4000015258789 74 -11.824000358581543 0 -1
117.9000015258789 92.9000015258789 -14.255000114440918 0 -1
112.30000305175781 87.9000015258789 -15.756999969482422 0 -1
119.19999694824219 82.30000305175781 -13.699999809265137 0 -1
113.5 88.19999694824219 -15.517999649047852 0 -1
122.30000305175781 87.69999694824219 -14.279000282287598 0 -1
112.5999984741211 85.9000015258789 -16.2549991607666 0 -1
115.5 88.4000015258789 -15.631999969482422 0 -1
121.4000015258789 87.9000015258789 -15.701000213623047 0 -1
120.0999984741211 94.30000305175781 -13.479999542236328 0 -1
117.5999984741211 92.69999694824219 -14.762999534606934 0 -1
122.5999984741211 80.5 -13.756999969482422 0 -1
116.4000015258789 79.19999694824219 -11.880999565124512 0 -1
114.0999984741211 83 -14.385000228881836 0 -1
114.5999984741211 76.4000015258789 -13.963000297546387 0 -1
120.5999984741211 79.30000305175781 -13.6850004196167 0 -1
116.9000015258789 82.5 -14.352999687194824 0 -1
116.69999694824219 91.19999694824219 -15.843000411987305 0 -1
118.30000305175781 87.30000305175781 -13.951000213623047 0 -1
114.5 77 -14.13700008392334 0 -1
112 88.4000015258789 -15.659000396728516 0 -1
112.69999694824219 74.5 -13.756999969482422 0 -1
114.9000015258789 90.5 -16.466999053955078 0 -1
122 94.5 -12.822999954223633 0 -1
119.5 92.19999694824219 -14.848999977111816 0 -1
121.5 85.0999984741211 -14.199000358581543 0 -1
118.5999984741211 82.5 -13.545999526977539 0 -1
114.30000305175781 87.30000305175781 -14.902999877929688 0 -1
111.5999984741211 87.69999694824219 -15.663000106811523 0 -1
116.80000305175781 86 -13.996000289916992 0 -1
115.0999984741211 85.19999694824219 -15.503999710083008 0 -1
122.5 81.0999984741211 -14.324999809265137 0 -1
118.80000305175781 93.4000015258789 -14.890000343322754 0 -1
122.9000015258789 87.80000305175781 -14.67199993133545 0 -1
116 85 -14.788000106811523 0 -1
115.5999984741211 84.4000015258789 -15.293000221252441 0 -1
115.80000305175781 87.5999984741211 -15.114999771118164 0 -1
111.4000015258789 74.0999984741211 -11.805000305175781 0 -1
117.9000015258789 92.80000305175781 -14.473999977111816 0 -1
112.4000015258789 90.69999694824219 -15.489999771118164 0 -1
120.5 83.19999694824219 -13.772000312805176 0 -1
116.4000015258789 79.5 -11.77400016784668 0 -1
115.9000015258789 88.4000015258789 -15.340999603271484 0 -1
118.0999984741211 81.0999984741211 -13.256999969482422 0 -1
117.0999984741211 86.4000015258789 -13.817999839782715 0 -1
117.19999694824219 80.5 -11.741999626159668 0 -1
117.5999984741211 92.9000015258789 -14.486000061035156 0 -1
112.5 80.5 -12.991000175476074 0 -1
111.9000015258789 84.5 -15.574999809265137 0 -1
122.80000305175781 86.0999984741211 -14.911999702453613 0 -1
118.30000305175781 87.4000015258789 -13.982999801635742 0 -1
113.5999984741211 90.30000305175781 -16.013999938964844 0 -1
120 94.5 -14.699999809265137 0 -1
116.0999984741211 92 -15.753000259399414 0 -1
110.80000305175781 80.80000305175781 -12.517999649047852 0 -1
111.69999694824219 88.69999694824219 -15.78600025177002 0 -1
118.9000015258789 77.30000305175781 -12.454999923706055 0 -1
120.4000015258789 82 -13.723999977111816 0 -1
115 90.5999984741211 -16.507999420166016 0 -1
114.80000305175781 80.80000305175781 -13.909000396728516 0 -1
116.19999694824219 91.5999984741211 -15.864999771118164 0 -1
116.5999984741211 79.19999694824219 -11.770999908447266 0 -1
114 88.9000015258789 -15.885000228881836 0 -1
118 76.9000015258789 -12.512999534606934 0 -1
110.69999694824219 82.5999984741211 -13.60200023651123 0 -1
121.80000305175781 87.4000015258789 -14.098999977111816 0 -1
118.19999694824219 83.5 -14.369000434875488 0 -1
121.19999694824219 81.19999694824219 -13.670000076293945 0 -1
116.9000015258789 82.5999984741211 -14.243000030517578 0 -1
115.69999694824219 82.5 -12.942000389099121 0 -1
121.69999694824219 90.5 -12.248000144958496 1 -1
111.30000305175781 80.5999984741211 -12.866999626159668 0 -1
118.80000305175781 93.5 -14.784000396728516 0 -1
122.9000015258789 87.69999694824219 -15.263999938964844 0 -1
111.9000015258789 84.5999984741211 -15.520999908447266 0 -1
116 85.0999984741211 -14.89799976348877 0 -1
122 79.19999694824219 -12.810999870300293 0 -1
112.4000015258789 90.80000305175781 -15.482000350952148 0 -1
120.69999694824219 92.9000015258789 -13.873000144958496 0 -1
122.0999984741211 80 -14.25 0 -1
115.19999694824219 83.9000015258789 -15.289999961853027 0 -1
115.4000015258789 90.0999984741211 -16.44099998474121 0 -1
116.80000305175781 85.80000305175781 -13.973999977111816 0 -1
115.0999984741211 85.80000305175781 -15.388999938964844 0 -1
119.4000015258789 90.69999694824219 -9.802000045776367 1 -1
115 75.30000305175781 -13.814000129699707 0 -1
114.4000015258789 80.9000015258789 -14.324000358581543 0 -1
111.5 87.0999984741211 -15.204999923706055 0 -1
119.5 76.9000015258789 -12.508999824523926 0 -1
117 87.5 -13.932999610900879 0 -1
120.5 83.30000305175781 -14.119999885559082 0 -1
112.4000015258789 75.4000015258789 -12.822999954223633 0 -1
114.4000015258789 82.4000015258789 -13.98799991607666 0 -1
116.5999984741211 94.5 -12.753999710083008 0 -1
118 92.19999694824219 -14.491999626159668 0 -1
114.19999694824219 88.0999984741211 -15.123000144958496 0 -1
113.4000015258789 79.19999694824219 -13.998000144958496 0 -1
113.0999984741211 75.0999984741211 -13.368000030517578 0 -1
122.19999694824219 84.9000015258789 -14.52400016784668 0 -1
114.19999694824219 75.19999694824219 -13.767999649047852 0 -1
120.9000015258789 82.30000305175781 -14.87399959564209 0 -1
119.19999694824219 82.0999984741211 -13.76099967956543 0 -1
121 82.9000015258789 -14.180000305175781 0 -1
118 76.80000305175781 -12.265999794006348 0 -1
113.19999694824219 74.4000015258789 -13.9399995803833 0 -1
117.30000305175781 95 -12.42199993133545 0 -1
116.30000305175781 77.9000015258789 -11.67199993133545 0 -1
117.9000015258789 93 -13.9399995803833 0 -1
115.4000015258789 89.0999984741211 -15.84000015258789 0 -1
111.80000305175781 87.0999984741211 -15.196000099182129 0 -1
120.69999694824219 92.80000305175781 -13.845000267028809 0 -1
116.4000015258789 94.9000015258789 -12.564000129699707 0 -1
117.4000015258789 89.30000305175781 -15.413999557495117 0 -1
121.30000305175781 87.80000305175781 -15.770000457763672 0 -1
115.5 88.80000305175781 -15.767000198364258 0 -1
118.69999694824219 83.5 -14.0649995803833 0 -1
113.5999984741211 77 -13.744000434875488 0 -1
122.30000305175781 87.80000305175781 -14.680000305175781 0 -1
114.19999694824219 74.80000305175781 -13.96500015258789 0 -1
117.80000305175781 87.5 -13.996000289916992 0 -1
120.0999984741211 78.80000305175781 -11.824999809265137 0 -1
114.69999694824219 81.4000015258789 -14.04800033569336 0 -1
112.4000015258789 75.5 -12.732999801635742 0 -1
112.19999694824219 86.0999984741211 -16.19700050354004 0 -1
120.30000305175781 89.9000015258789 -9.635000228881836 1 -1
118.4000015258789 83.30000305175781 -14.092000007629395 0 -1
121.19999694824219 81.4000015258789 -13.477999687194824 0 -1
114.5 86.30000305175781 -15.486000061035156 0 -1
115.80000305175781 87.80000305175781 -15.12399959564209 0 -1
119.9000015258789 84.4000015258789 -14.718999862670898 0 -1
115.30000305175781 84.19999694824219 -15.402999877929688 0 -1
112.69999694824219 74.5999984741211 -13.66100025177002 0 -1
112.80000305175781 81.5 -13.456000328063965 0 -1
117.9000015258789 77.5 -11.972999572753906 0 -1
122.69999694824219 87.30000305175781 -14.829000473022461 0 -1
112.5999984741211 85.80000305175781 -16.163000106811523 0 -1
114.4000015258789 81.4000015258789 -14.32699966430664 0 -1
111.30000305175781 80.4000015258789 -12.142999649047852 0 -1
119.5 77.19999694824219 -12.704000473022461 0 -1
118.30000305175781 87.19999694824219 -13.97599983215332 0 -1
112.0999984741211 84.4000015258789 -15.767000198364258 0 -1
120.80000305175781 89.5 -9.621000289916992 1 -1
114.80000305175781 79.9000015258789 -12.840999603271484 0 -1
114.9000015258789 75.19999694824219 -13.954000473022461 0 -1
122.5999984741211 80.4000015258789 -13.793000221252441 0 -1
119 86.69999694824219 -13.690999984741211 0 -1
114.5999984741211 76.69999694824219 -14.496999740600586 0 -1
113.5 88.0999984741211 -15.548999786376953 0 -1
113.0999984741211 92.5 -14.862000465393066 0 -1
122 78.5 -12.9350004196167 0 -1
114.5 77.0999984741211 -14.371999740600586 0 -1
119.0999984741211 87 -13.704999923706055 0 -1
112.30000305175781 88 -15.894000053405762 0 -1
114.9000015258789 90.5999984741211 -16.481000900268555 0 -1
116.4000015258789 79.5999984741211 -11.715999603271484 0 -1
121.0999984741211 80.5 -14.130000114440918 0 -1
118.5 82.0999984741211 -13.95199966430664 0 -1
112.5 80.4000015258789 -12.961999893188477 0 -1
116.19999694824219 91.5 -15.829999923706055 0 -1
120.69999694824219 77.5 -11.548999786376953 0 -1
120 94.5999984741211 -14.854999542236328 0 -1
115.9000015258789 88.5 -15.625 0 -1
116.5 85.0999984741211 -13.909000396728516 0 -1
118.0999984741211 81.19999694824219 -13.355999946594238 0 -1
118.4000015258789 83.19999694824219 -14.13700008392334 0 -1
117.19999694824219 80.4000015258789 -11.777000427246094 0 -1
117.5999984741211 92.80000305175781 -14.57800006866455 0 -1
118.9000015258789 77.19999694824219 -12.595000267028809 0 -1
119.30000305175781 93.5999984741211 -14.937000274658203 0 -1
115 90.69999694824219 -16.493999481201172 0 -1
116.5999984741211 79.30000305175781 -12.013999938964844 0 -1
121 82.69999694824219 -13.895999908447266 0 -1
121.80000305175781 87.5 -15.302000045776367 0 -1
121.19999694824219 81.30000305175781 -13.586000442504883 0 -1
117.5999984741211 77.5 -11.782999992370605 0 -1
120 79.19999694824219 -12.175000190734863 0 -1
114.69999694824219 81.30000305175781 -13.675999641418457 0 -1
116.0999984741211 92.0999984741211 -14.970999717712402 0 -1
117.80000305175781 87.0999984741211 -13.996000289916992 0 -1
110.80000305175781 80.69999694824219 -12.456000328063965 0 -1
111.69999694824219 88.80000305175781 -15.786999702453613 0 -1
118.9000015258789 92.5999984741211 -14.673999786376953 0 -1
113.30000305175781 79.80000305175781 -13.993000030517578 0 -1
118.80000305175781 76.0999984741211 -12.722999572753906 0 -1
121.30000305175781 87.5999984741211 -15.472000122070312 0 -1
121.69999694824219 90.4000015258789 -12.140000343322754 1 -1
114.30000305175781 76 -13.807999610900879 0 -1
116.5999984741211 94.69999694824219 -12.529000282287598 0 -1
120.19999694824219 90.80000305175781 -9.857000350952148 1 -1
120.5999984741211 78.4000015258789 -11.777999877929688 0 -1
117.69999694824219 80.19999694824219 -12.29800033569336 0 -1
123 86.5 -14.758999824523926 0 -1
111.9000015258789 84.9000015258789 -15.550000190734863 0 -1
113.0999984741211 74.9000015258789 -13.958000183105469 0 -1
121.4000015258789 88 -15.758999824523926 0 -1
111.19999694824219 84.9000015258789 -14.98799991607666 0 -1
112 88.30000305175781 -15.638999938964844 0 -1
110.69999694824219 82.5 -13.508000373840332 0 -1
121.0999984741211 80.4000015258789 -13.661999702453613 0 -1
113.0999984741211 92.30000305175781 -14.862000465393066 0 -1
112.80000305175781 81.80000305175781 -13.645000457763672 0 -1
122.5999984741211 79.30000305175781 -14.369000434875488 0 -1
118 77.30000305175781 -12.144000053405762 0 -1
118.19999694824219 83.9000015258789 -14.512999534606934 0 -1
120.69999694824219 77.4000015258789 -12.628000259399414 0 -1
117.19999694824219 81.4000015258789 -13.925000190734863 0 -1
122.0999984741211 81.69999694824219 -13.340999603271484 0 -1
116.5 85 -13.888999938964844 0 -1
116.80000305175781 84.0999984741211 -13.944999694824219 0 -1
112.30000305175781 87.0999984741211 -15.805000305175781 0 -1
113.5999984741211 90.4000015258789 -16.035999298095703 0 -1
119.5 92.5999984741211 -13.571999549865723 0 -1
118.5999984741211 82.9000015258789 -13.805999755859375 0 -1
120.19999694824219 90.69999694824219 -15.880000114440918 0 -1
121.5 85.19999694824219 -13.871000289916992 0 -1
118.80000305175781 76.19999694824219 -12.788000106811523 0 -1
115 75.4000015258789 -13.961000442504883 0 -1
117.30000305175781 79.69999694824219 -11.758000373840332 0 -1
117.0999984741211 86.30000305175781 -13.86400032043457 0 -1
120.5999984741211 78.5 -11.88700008392334 0 -1
119.30000305175781 76.19999694824219 -12.336000442504883 0 -1
119.80000305175781 80.30000305175781 -13.753000259399414 0 -1
113.19999694824219 74.5 -13.920000076293945 0 -1
112.69999694824219 74.4000015258789 -13.66100025177002 0 -1
114.9000015258789 90.4000015258789 -16.452999114990234 0 -1
114.0999984741211 83.0999984741211 -14.534000396728516 0 -1
117.4000015258789 89.0999984741211 -15.258000373840332 0 -1
114.30000305175781 87.19999694824219 -14.979999542236328 0 -1
119.69999694824219 80.69999694824219 -13.855999946594238 0 -1
112.5999984741211 85.19999694824219 -16.1200008392334 0 -1
121 82.80000305175781 -13.949000358581543 0 -1
116.69999694824219 91.30000305175781 -15.831000328063965 0 -1
116.5999984741211 94.5999984741211 -12.668000221252441 0 -1
111.5 87.19999694824219 -15.303999900817871 0 -1
123 86.4000015258789 -14.96500015258789 0 -1
113.5999984741211 77.0999984741211 -13.560999870300293 0 -1
112.0999984741211 84.5999984741211 -15.829999923706055 0 -1
120.0999984741211 78.5999984741211 -11.824999809265137 0 -1
112.80000305175781 81.9000015258789 -13.588000297546387 0 -1
122.5 78.69999694824219 -12.817000389099121 0 -1
122.80000305175781 88 -14.696999549865723 0 -1
115.80000305175781 87.69999694824219 -15.145999908447266 0 -1
118 92.5999984741211 -14.722000122070312 0 -1
114.5 77.19999694824219 -14.664999961853027 0 -1
111.5999984741211 87.5999984741211 -15.579000473022461 0 -1
120.30000305175781 90.0999984741211 -9.602999687194824 1 -1
112 88.19999694824219 -15.87600040435791 0 -1
117.4000015258789 89.19999694824219 -15.274999618530273 0 -1
114.5999984741211 88 -15.288000106811523 0 -1
122.4000015258789 90.69999694824219 -12.883000373840332 1 -1
113.4000015258789 79.0999984741211 -14.352999687194824 0 -1
121.5999984741211 80.30000305175781 -13.715999603271484 0 -1
115.5 88.5999984741211 -15.831999778747559 0 -1
118 77.19999694824219 -12.401000022888184 0 -1
115.19999694824219 83 -14.902000427246094 0 -1
115.30000305175781 84.0999984741211 -15.39799976348877 0 -1
115.4000015258789 89.19999694824219 -15.961999893188477 0 -1
120.69999694824219 92.69999694824219 -16.1560001373291 0 -1
116.4000015258789 79.4000015258789 -11.913999557495117 0 -1
122.30000305175781 88.4000015258789 -15 0 -1
120.4000015258789 82.0999984741211 -13.741999626159668 0 -1
114 89 -15.925999641418457 0 -1
122.19999694824219 83 -13.845000267028809 0 -1
116.30000305175781 78 -11.866999626159668 0 -1
114.4000015258789 82.30000305175781 -13.878000259399414 0 -1
111.4000015258789 74.19999694824219 -12.751999855041504 0 -1
119.30000305175781 76.0999984741211 -12.774999618530273 0 -1
116.9000015258789 83.19999694824219 -13.704999923706055 0 -1
112.4000015258789 90.4000015258789 -15.496000289916992 0 -1
113.69999694824219 92.0999984741211 -15.401000022888184 0 -1
121.5 85.30000305175781 -14.199000358581543 0 -1
117.19999694824219 90.5999984741211 -15.288999557495117 0 -1
117.5999984741211 78.19999694824219 -11.86299991607666 0 -1
120.9000015258789 82.4000015258789 -13.595000267028809 0 -1
111.30000305175781 80.5 -12.178999900817871 0 -1
114.4000015258789 81.30000305175781 -14.329000473022461 0 -1
119.5 77.30000305175781 -12.51099967956543 0 -1
119.9000015258789 84.30000305175781 -14.61299991607666 0 -1
119.80000305175781 80.19999694824219 -13.789999961853027 0 -1
118.80000305175781 93.5999984741211 -14.802000045776367 0 -1
120.80000305175781 89.4000015258789 -9.774999618530273 1 -1
122.9000015258789 87.5999984741211 -15.128999710083008 0 -1
115 90.80000305175781 -16.507999420166016 0 -1
119 86.5999984741211 -13.704999923706055 0 -1
122.5 78.5999984741211 -12.680999755859375 0 -1
114.5999984741211 76.5999984741211 -13.963000297546387 0 -1
115.69999694824219 82.5999984741211 -12.690999984741211 0 -1
116.69999694824219 91 -15.664999961853027 0 -1
118.30000305175781 87.0999984741211 -13.920000076293945 0 -1
120.0999984741211 78.69999694824219 -11.99899959564209 0 -1
117.5 83.9000015258789 -14.359999656677246 0 -1
112.5 80.30000305175781 -12.991999626159668 0 -1
117.9000015258789 77.5999984741211 -11.64900016784668 0 -1
111.5999984741211 87.5 -15.663000106811523 0 -1
118.5999984741211 82.69999694824219 -13.732000350952148 0 -1
118 92.5 -14.571999549865723 0 -1
120 94.69999694824219 -14.829000473022461 0 -1
116.19999694824219 75.5 -12.937999725341797 0 -1
111.5 87.9000015258789 -15.696999549865723 0 -1
113.5 88.5 -15.954999923706055 0 -1
123 86.0999984741211 -14.958000183105469 0 -1
122.9000015258789 88 -14.744999885559082 0 -1
113.4000015258789 79 -14.321000099182129 0 -1
115.0999984741211 85.9000015258789 -15.392999649047852 0 -1
118.9000015258789 77.0999984741211 -12.380999565124512 0 -1
115.5 88.69999694824219 -15.92199993133545 0 -1
116.19999694824219 91.4000015258789 -15.930999755859375 0 -1
117.0999984741211 85.69999694824219 -13.987000465393066 0 -1
118.4000015258789 88.80000305175781 -13.98799991607666 0 -1
111.4000015258789 74.30000305175781 -12.706000328063965 0 -1
110.80000305175781 80.0999984741211 -12.069000244140625 0 -1
120 79.30000305175781 -13.73799991607666 0 -1
113.0999984741211 75 -13.220999717712402 0 -1
120.5 83.4000015258789 -13.89799976348877 0 -1
114.80000305175781 80.0999984741211 -12.840999603271484 0 -1
114.5 86.4000015258789 -15.444000244140625 0 -1
122.0999984741211 81.9000015258789 -13.520000457763672 0 -1
118.0999984741211 81.30000305175781 -13.256999969482422 0 -1
118.9000015258789 92.5 -14.406999588012695 0 -1
117.5999984741211 93.5 -13.824000358581543 0 -1
119.4000015258789 90.80000305175781 -9.715999603271484 1 -1
112.19999694824219 87 -15.741000175476074 0 -1
121 82.5999984741211 -13.949000358581543 0 -1
116.9000015258789 83.30000305175781 -13.680000305175781 0 -1
112.4000015258789 75.0999984741211 -12.595000267028809 0 -1
115.9000015258789 89.5999984741211 -16.179000854492188 0 -1
122.0999984741211 95 -12.526000022888184 0 -1
114 88.69999694824219 -15.763999938964844 0 -1
116 85.19999694824219 -14.918999671936035 0 -1
121.19999694824219 81 -13.781999588012695 0 -1
110.69999694824219 82.4000015258789 -13.553999900817871 0 -1
114.19999694824219 88.19999694824219 -15.413999557495117 0 -1
117 84.5999984741211 -13.305000305175781 0 -1
115.0999984741211 86 -14.824999809265137 0 -1
116.19999694824219 92.9000015258789 -14.704999923706055 0 -1
117.80000305175781 87.19999694824219 -13.989999771118164 0 -1
114.19999694824219 74.9000015258789 -14.010000228881836 0 -1
119.5 77.0999984741211 -12.508999824523926 0 -1
121.80000305175781 87.0999984741211 -14.095000267028809 0 -1
117.30000305175781 76 -12.579000473022461 0 -1
122.5 78.80000305175781 -12.680999755859375 0 -1
116.4000015258789 94.80000305175781 -12.677000045776367 0 -1
114.30000305175781 75.9000015258789 -13.854999542236328 0 -1
116.80000305175781 84.19999694824219 -13.854999542236328 0 -1
111.69999694824219 88.4000015258789 -15.776000022888184 0 -1
120.4000015258789 82.30000305175781 -13.755000114440918 0 -1
113.30000305175781 79.4000015258789 -13.998000144958496 0 -1
122.5999984741211 79.19999694824219 -12.949000358581543 0 -1
113.5999984741211 90.5 -16.05699920654297 0 -1
112.80000305175781 81.69999694824219 -13.5649995803833 0 -1
115.5999984741211 84.30000305175781 -15.28499984741211 0 -1
111.80000305175781 88 -15.75100040435791 0 -1
117.19999694824219 81.30000305175781 -12.413999557495117 0 -1
119.30000305175781 93.5 -14.961999893188477 0 -1
115 75.5 -13.777000427246094 0 -1
117 84.5 -13.588000297546387 0 -1
113.19999694824219 74.5999984741211 -13.98799991607666 0 -1
122.4000015258789 77.5 -11.562000274658203 0 -1
114.9000015258789 75.0999984741211 -13.901000022888184 0 -1
114.80000305175781 80 -12.633000373840332 0 -1
121.69999694824219 90.30000305175781 -12.031000137329102 1 -1
118.69999694824219 83.5999984741211 -14.12600040435791 0 -1
113.0999984741211 92.4000015258789 -14.97700023651123 0 -1
115.5 89 -15.831000328063965 0 -1
114.19999694824219 88.30000305175781 -15.458000183105469 0 -1
112.0999984741211 84.5 -15.86400032043457 0 -1
120.0999984741211 78.5 -11.937000274658203 0 -1
114.0999984741211 83.19999694824219 -14.58899974822998 0 -1
117.9000015258789 77.80000305175781 -11.64900016784668 0 -1
118.5 89.9000015258789 -13.906000137329102 0 -1
119.69999694824219 80.80000305175781 -13.470000267028809 0 -1
120.30000305175781 90 -9.638999938964844 1 -1
120.5 83 -13.758000373840332 0 -1
116.5999984741211 80.5 -10.798999786376953 0 -1
116 82.69999694824219 -12.824999809265137 0 -1
112.30000305175781 87.19999694824219 -15.82699966430664 0 -1
114.30000305175781 75.80000305175781 -14.050999641418457 0 -1
121.19999694824219 80.9000015258789 -14.305000305175781 0 -1
111.19999694824219 84 -15.133000373840332 0 -1
112.69999694824219 74.30000305175781 -13.637999534606934 0 -1
122.80000305175781 87.9000015258789 -14.67199993133545 0 -1
114.30000305175781 87.0999984741211 -14.982999801635742 0 -1
114.5 77.30000305175781 -14.496999740600586 0 -1
115.19999694824219 83.0999984741211 -14.951000213623047 0 -1
115.30000305175781 84 -15.38599967956543 0 -1
115.4000015258789 89.30000305175781 -16.003000259399414 0 -1
119.4000015258789 91.5 -14.89799976348877 0 -1
121.30000305175781 88 -15.770000457763672 0 -1
120.9000015258789 82 -13.58899974822998 0 -1
115.69999694824219 82.80000305175781 -13.262999534606934 0 -1
122.69999694824219 87.5 -14.496999740600586 0 -1
119.0999984741211 86.9000015258789 -13.77400016784668 0 -1
112.19999694824219 86.80000305175781 -15.354999542236328 0 -1
119.5999984741211 86.80000305175781 -13.779999732971191 0 -1
114.19999694824219 75 -13.54699993133545 0 -1
114.69999694824219 81.19999694824219 -13.758999824523926 0 -1
122.30000305175781 88.5 -15.043000221252441 0 -1
112.5999984741211 85.0999984741211 -16.089000701904297 0 -1
113.69999694824219 92 -15.586999893188477 0 -1
111.30000305175781 80.30000305175781 -12.187999725341797 0 -1
121.0999984741211 80.80000305175781 -14.234999656677246 0 -1
120.30000305175781 89.69999694824219 -9.6850004196167 1 -1
116.30000305175781 78.0999984741211 -11.265000343322754 0 -1
114.4000015258789 82.19999694824219 -13.968000411987305 0 -1
119.9000015258789 84.19999694824219 -14.541999816894531 0 -1
115 90.9000015258789 -16.275999069213867 0 -1
121.5999984741211 79.9000015258789 -14.24899959564209 0 -1
113.0999984741211 74.80000305175781 -13.894000053405762 0 -1
118.69999694824219 83.69999694824219 -14.407999992370605 0 -1
117.5999984741211 78.0999984741211 -11.609999656677246 0 -1
117.19999694824219 90.5 -15.33899974822998 0 -1
119.19999694824219 82 -13.486000061035156 0 -1
113.5999984741211 77.19999694824219 -13.871999740600586 0 -1
114.69999694824219 81.0999984741211 -13.892999649047852 0 -1
116.4000015258789 79.80000305175781 -11.906000137329102 0 -1
114.4000015258789 81.19999694824219 -14.251999855041504 0 -1
113.0999984741211 92.19999694824219 -14.97700023651123 0 -1
120.19999694824219 91.0999984741211 -15.904000282287598 0 -1
120.80000305175781 89.30000305175781 -9.479000091552734 1 -1
114.0999984741211 83.30000305175781 -14.642999649047852 0 -1
112.5 80.19999694824219 -12.991999626159668 0 -1
117.9000015258789 93.0999984741211 -14.255000114440918 0 -1
113.9000015258789 81 -13.993000030517578 0 -1
116.5999984741211 80.4000015258789 -11.168000221252441 0 -1
116.5 84.9000015258789 -13.940999984741211 0 -1
113 85.5999984741211 -16.152999877929688 0 -1
118.5 90.0999984741211 -14.394000053405762 0 -1
113.5 88.4000015258789 -15.986000061035156 0 -1
117.9000015258789 77.69999694824219 -12.925000190734863 0 -1
118.19999694824219 83.80000305175781 -14.454999923706055 0 -1
115.80000305175781 86.30000305175781 -14.965999603271484 0 -1
117.0999984741211 85.5999984741211 -13.734000205993652 0 -1
114.9000015258789 74.9000015258789 -13.668000221252441 0 -1
114.80000305175781 80.19999694824219 -12.440999984741211 0 -1
122.0999984741211 81.80000305175781 -14.22599983215332 0 -1
116.69999694824219 90.9000015258789 -15.619999885559082 0 -1
116.19999694824219 75.4000015258789 -12.958000183105469 0 -1
113.30000305175781 79.5999984741211 -13.993000030517578 0 -1
116.80000305175781 84 -13.708000183105469 0 -1
115.5999984741211 84.0999984741211 -15.26099967956543 0 -1
118.5999984741211 82.80000305175781 -13.748000144958496 0 -1
110.80000305175781 80 -12.03499984741211 0 -1
119.30000305175781 92.9000015258789 -14.72599983215332 0 -1
118.9000015258789 76.5 -12.920999526977539 0 -1
114.5 86.5 -15.486000061035156 0 -1
114.9000015258789 90.30000305175781 -16.774999618530273 0 -1
118.0999984741211 81.4000015258789 -13.454000473022461 0 -1
120.69999694824219 77.80000305175781 -11.951000213623047 0 -1
118.9000015258789 87.80000305175781 -13.642999649047852 0 -1
120 94.30000305175781 -13.906000137329102 0 -1
119 87.5 -13.76200008392334 0 -1
116.69999694824219 77.5999984741211 -11.961999893188477 0 -1
119.5 92.5 -13.534000396728516 0 -1
121.19999694824219 81.0999984741211 -13.586000442504883 0 -1
114.5999984741211 87.9000015258789 -14.836999893188477 0 -1
111.19999694824219 84.19999694824219 -15.277000427246094 0 -1
111.4000015258789 74.4000015258789 -12.916000366210938 0 -1
117 84.69999694824219 -13.97599983215332 0 -1
115 75.5999984741211 -13.746000289916992 0 -1
116 82.80000305175781 -12.734000205993652 0 -1
115.9000015258789 89.69999694824219 -16.233999252319336 0 -1
111.5 88 -15.717000007629395 0 -1
120 78.9000015258789 -11.67199993133545 0 -1
114 88.5999984741211 -15.79800033569336 0 -1
122 78.4000015258789 -12.79699993133545 0 -1
116.5 84.80000305175781 -13.73900032043457 0 -1
120.5999984741211 78.5999984741211 -11.777999877929688 0 -1
112.0999984741211 84.69999694824219 -15.86400032043457 0 -1
113.5999984741211 90.5999984741211 -16.160999298095703 0 -1
116.19999694824219 92.80000305175781 -14.75100040435791 0 -1
113.69999694824219 74.9000015258789 -13.833999633789062 0 -1
112 88.0999984741211 -15.843999862670898 0 -1
121.5 85.4000015258789 -14.222000122070312 0 -1
111.69999694824219 88.5 -15.789999961853027 0 -1
120.4000015258789 82.19999694824219 -13.760000228881836 0 -1
113.30000305175781 79.5 -13.991000175476074 0 -1
115.5999984741211 84.19999694824219 -14.923999786376953 0 -1
122.19999694824219 83.0999984741211 -13.86299991607666 0 -1
117.4000015258789 87 -13.814000129699707 0 -1
118 77.0999984741211 -12.256999969482422 0 -1
121.80000305175781 87.19999694824219 -14.098999977111816 0 -1
113.69999694824219 90.30000305175781 -16.01099967956543 0 -1
122.80000305175781 87.69999694824219 -14.67199993133545 0 -1
118.0999984741211 80.4000015258789 -13.1899995803833 0 -1
118 93.9000015258789 -13.706999778747559 0 -1
113.19999694824219 74.69999694824219 -13.920000076293945 0 -1
117.19999694824219 81.19999694824219 -12.006999969482422 0 -1
117.5999984741211 93.5999984741211 -13.913000106811523 0 -1
119.30000305175781 92.80000305175781 -14.937999725341797 0 -1
112.4000015258789 90.5 -15.505999565124512 0 -1
115.80000305175781 86.5 -14.663999557495117 0 -1
121.69999694824219 90.19999694824219 -12.086000442504883 1 -1
117.5999984741211 78.30000305175781 -12.880999565124512 0 -1
118.4000015258789 88.69999694824219 -13.951000213623047 0 -1
118.5999984741211 83.0999984741211 -13.805999755859375 0 -1
111.9000015258789 84.80000305175781 -15.520999908447266 0 -1
117.5 84 -14.437999725341797 0 -1
116.0999984741211 92.19999694824219 -14.857000350952148 0 -1
117.30000305175781 75.80000305175781 -12.592000007629395 0 -1
119.5999984741211 77.5999984741211 -11.883999824523926 0 -1
120.69999694824219 93.0999984741211 -13.873000144958496 0 -1
114.5999984741211 86.19999694824219 -15.418000221252441 0 -1
119.0999984741211 93.4000015258789 -14.961999893188477 0 -1
120.5999984741211 78.69999694824219 -11.862000465393066 0 -1
113.4000015258789 78.9000015258789 -14.352999687194824 0 -1
115.19999694824219 83.30000305175781 -14.951000213623047 0 -1
111.80000305175781 87.9000015258789 -15.729000091552734 0 -1
114.5 87.5999984741211 -14.918000221252441 0 -1
120.69999694824219 77.69999694824219 -11.791999816894531 0 -1
118.80000305175781 77.4000015258789 -12.642999649047852 0 -1
115.69999694824219 82.69999694824219 -12.956999778747559 0 -1
116.69999694824219 91.0999984741211 -15.619999885559082 0 -1
122.9000015258789 87.9000015258789 -14.720999717712402 0 -1
112.19999694824219 86.9000015258789 -15.722000122070312 0 -1
119.5999984741211 86.9000015258789 -13.789999961853027 0 -1
116.30000305175781 78.19999694824219 -11.081999778747559 0 -1
112.69999694824219 77.19999694824219 -13.812000274658203 0 -1
110.69999694824219 82.30000305175781 -13.538000106811523 0 -1
111.5999984741211 87.4000015258789 -15.579000473022461 0 -1
113.69999694824219 75 -13.66100025177002 0 -1
112.4000015258789 90.5999984741211 -15.498000144958496 0 -1
119.4000015258789 91.4000015258789 -14.946999549865723 0 -1
120.9000015258789 82.0999984741211 -13.46500015258789 0 -1
112 88 -15.725000381469727 0 -1
116.5999984741211 80.5999984741211 -11.284000396728516 0 -1
119.5 91.80000305175781 -14.892000198364258 0 -1
118.19999694824219 84.0999984741211 -14.512999534606934 0 -1
118.69999694824219 82.19999694824219 -13.404999732971191 0 -1
120.30000305175781 89.5999984741211 -9.604000091552734 1 -1
115.0999984741211 85.5999984741211 -15.456000328063965 0 -1
116.69999694824219 77.80000305175781 -12.258000373840332 0 -1
114.30000305175781 77.80000305175781 -13.562000274658203 0 -1
121.5999984741211 80.0999984741211 -14.414999961853027 0 -1
115.4000015258789 89.4000015258789 -16.158000946044922 0 -1
113.0999984741211 76.69999694824219 -13.914999961853027 0 -1
122.5 78.4000015258789 -12.656000137329102 0 -1
122.19999694824219 83.30000305175781 -13.762999534606934 0 -1
112.5999984741211 85 -16.1560001373291 0 -1
112.4000015258789 75.19999694824219 -12.442999839782715 0 -1
114.4000015258789 80.5999984741211 -14.446999549865723 0 -1
114.19999694824219 92 -15.708999633789062 0 -1
118.4000015258789 88.5999984741211 -13.970999717712402 0 -1
115.30000305175781 84.4000015258789 -15.595000267028809 0 -1
120.69999694824219 93 -13.96399974822998 0 -1
113.5999984741211 77.30000305175781 -13.901000022888184 0 -1
114 88.80000305175781 -15.79800033569336 0 -1
122.69999694824219 87.0999984741211 -14.829000473022461 0 -1
117.9000015258789 93.30000305175781 -13.947999954223633 0 -1
116.9000015258789 83.4000015258789 -13.743000030517578 0 -1
112.5 80.0999984741211 -12.96500015258789 0 -1
112.80000305175781 78 -13.75 0 -1
122.5999984741211 79.0999984741211 -12.6899995803833 0 -1
122.4000015258789 90.9000015258789 -12.883000373840332 1 -1
117.19999694824219 90.4000015258789 -15.302000045776367 0 -1
117.30000305175781 75.9000015258789 -12.657999992370605 0 -1
113.5999984741211 76.30000305175781 -13.814000129699707 0 -1
118.80000305175781 77.5 -12.579999923706055 0 -1
116.0999984741211 92.4000015258789 -14.968999862670898 0 -1
112.5999984741211 85.5 -16.113000869750977 0 -1
122.0999984741211 81.5 -13.407999992370605 0 -1
116.19999694824219 75.30000305175781 -12.97700023651123 0 -1
118.5 90 -14.404000282287598 0 -1
113.4000015258789 78.80000305175781 -14.28600025177002 0 -1
119.9000015258789 84.0999984741211 -14.61299991607666 0 -1
115.19999694824219 83.19999694824219 -14.994999885559082 0 -1
120.4000015258789 82.4000015258789 -13.760000228881836 0 -1
115 91 -16.250999450683594 0 -1
117.4000015258789 86.80000305175781 -13.819000244140625 0 -1
112.4000015258789 74.80000305175781 -12.498000144958496 0 -1
116.9000015258789 83 -13.704999923706055 0 -1
113.9000015258789 80.9000015258789 -13.883000373840332 0 -1
111.5999984741211 87.30000305175781 -15.611000061035156 0 -1
118.9000015258789 76.4000015258789 -12.154000282287598 0 -1
114.9000015258789 75 -13.954000473022461 0 -1
117.5 84.19999694824219 -14.642999649047852 0 -1
115.9000015258789 89.80000305175781 -16.333999633789062 0 -1
118.69999694824219 82.30000305175781 -13.769000053405762 0 -1
118.80000305175781 86.5999984741211 -13.718999862670898 0 -1
118.9000015258789 87.69999694824219 -13.70199966430664 0 -1
122.0999984741211 94.80000305175781 -12.807999610900879 0 -1
121.5999984741211 80 -12.930000305175781 0 -1
115.5999984741211 84 -14.923999786376953 0 -1
112.9000015258789 84.9000015258789 -14.805000305175781 0 -1
121.4000015258789 87.80000305175781 -15.616999626159668 0 -1
114.30000305175781 93.0999984741211 -14.519000053405762 0 -1
110.80000305175781 79.9000015258789 -12.116000175476074 0 -1
117.9000015258789 93.19999694824219 -13.958999633789062 0 -1
111.80000305175781 87.69999694824219 -15.798999786376953 0 -1
115 75.69999694824219 -13.312999725341797 0 -1
119.5 76.5 -11.972000122070312 0 -1
120 79 -12.194999694824219 0 -1
116.4000015258789 95 -12.677000045776367 0 -1
117.5999984741211 93.30000305175781 -13.942999839782715 0 -1
119 87.4000015258789 -13.75100040435791 0 -1
121.0999984741211 80.69999694824219 -13.734000205993652 0 -1
114.30000305175781 77.69999694824219 -13.916999816894531 0 -1
118.30000305175781 87 -13.996999740600586 0 -1
113.80000305175781 79.80000305175781 -14.314000129699707 0 -1
111.19999694824219 84.0999984741211 -15.218999862670898 0 -1
122.30000305175781 88.0999984741211 -14.913000106811523 0 -1
112.19999694824219 86.69999694824219 -15.362000465393066 0 -1
117.4000015258789 86.9000015258789 -13.968000411987305 0 -1
113.69999694824219 74.80000305175781 -13.687999725341797 0 -1
113.19999694824219 90.19999694824219 -15.88700008392334 0 -1
120.5 83.0999984741211 -13.621999740600586 0 -1
112.30000305175781 87.30000305175781 -15.869999885559082 0 -1
121.30000305175781 87.9000015258789 -15.689000129699707 0 -1
117 84.80000305175781 -13.934000015258789 0 -1
120.30000305175781 89.80000305175781 -9.654999732971191 1 -1
119.0999984741211 93.19999694824219 -14.961999893188477 0 -1
121 82.5 -13.793999671936035 0 -1
122.80000305175781 87.80000305175781 -14.696999549865723 0 -1
117.30000305175781 76.19999694824219 -12.805999755859375 0 -1
113.19999694824219 74.80000305175781 -13.98799991607666 0 -1
115.69999694824219 82.9000015258789 -13.680000305175781 0 -1
111.30000305175781 80.19999694824219 -12.14900016784668 0 -1
118.80000305175781 86.69999694824219 -13.854000091552734 0 -1
113.5 89.80000305175781 -16.089000701904297 0 -1
122 78.80000305175781 -13.78499984741211 0 -1
118.0999984741211 80.5 -13.3100004196167 0 -1
112.9000015258789 84.80000305175781 -14.805000305175781 0 -1
113.80000305175781 79.69999694824219 -14.305000305175781 0 -1
114.30000305175781 93 -14.685999870300293 0 -1
117.19999694824219 81.0999984741211 -11.32800006866455 0 -1
119.4000015258789 91.5999984741211 -14.946999549865723 0 -1
120 94.4000015258789 -13.692999839782715 0 -1
115.80000305175781 86.4000015258789 -14.82699966430664 0 -1
118.5 89.69999694824219 -13.977999687194824 0 -1
119.5999984741211 77.69999694824219 -11.965999603271484 0 -1
123 86.19999694824219 -14.96500015258789 0 -1
113.30000305175781 78.19999694824219 -14.09000015258789 0 -1
114.69999694824219 81 -13.956000328063965 0 -1
112.30000305175781 87.4000015258789 -15.82699966430664 0 -1
121.4000015258789 87.30000305175781 -15.449999809265137 0 -1
115.19999694824219 83.4000015258789 -14.994999885559082 0 -1
117.0999984741211 86 -13.704000473022461 0 -1
111.69999694824219 88.0999984741211 -15.696999549865723 0 -1
117.5 84.0999984741211 -14.562000274658203 0 -1
116.0999984741211 92.30000305175781 -14.970999717712402 0 -1
117.80000305175781 88.9000015258789 -13.871999740600586 0 -1
116.80000305175781 84.4000015258789 -13.861000061035156 0 -1
116.4000015258789 79.69999694824219 -11.744999885559082 0 -1
119.5 76.30000305175781 -11.972000122070312 0 -1
113 85.69999694824219 -16.17799949645996 0 -1
117.5999984741211 77.9000015258789 -11.609999656677246 0 -1
120.19999694824219 91 -15.840999603271484 0 -1
114.5 87.69999694824219 -14.890999794006348 0 -1
114.0999984741211 83.4000015258789 -14.706000328063965 0 -1
110.69999694824219 82.19999694824219 -13.454999923706055 0 -1
113.9000015258789 81.0999984741211 -13.99899959564209 0 -1
117.69999694824219 75.69999694824219 -12.255999565124512 0 -1
112.0999984741211 84.80000305175781 -15.887999534606934 0 -1
120.80000305175781 89.0999984741211 -9.746000289916992 1 -1
114.9000015258789 74.80000305175781 -13.614999771118164 0 -1
119.30000305175781 92.69999694824219 -13.534000396728516 0 -1
112.69999694824219 77.30000305175781 -13.852999687194824 0 -1
116.30000305175781 78.30000305175781 -11.314000129699707 0 -1
117.9000015258789 93.4000015258789 -13.958999633789062 0 -1
119 76.0999984741211 -12.550999641418457 0 -1
115.4000015258789 89.5 -16.2189998626709 0 -1
119.5 91.9000015258789 -14.772000312805176 0 -1
114.9000015258789 90.19999694824219 -16.582000732421875 0 -1
113.30000305175781 78.0999984741211 -13.85200023651123 0 -1
121.69999694824219 91.0999984741211 -16.302000045776367 0 -1
121.0999984741211 80.0999984741211 -13.619000434875488 0 -1
111.19999694824219 84.30000305175781 -15.357999801635742 0 -1
111.4000015258789 74.5 -13.187000274658203 0 -1
120.19999694824219 90.9000015258789 -15.904000282287598 0 -1
120.0999984741211 78.4000015258789 -11.880000114440918 0 -1
122.19999694824219 83.19999694824219 -13.845000267028809 0 -1
112.5 80 -12.984999656677246 0 -1
116 82.9000015258789 -12.925999641418457 0 -1
116.19999694824219 92.69999694824219 -14.859999656677246 0 -1
118.19999694824219 84.19999694824219 -14.574999809265137 0 -1
114.4000015258789 80.5 -14.480999946594238 0 -1
116.69999694824219 77.69999694824219 -11.49899959564209 0 -1
116.5 84.69999694824219 -13.795000076293945 0 -1
119.9000015258789 84 -14.39799976348877 0 -1
111.9000015258789 83 -14.121999740600586 0 -1
115 91.0999984741211 -16.22599983215332 0 -1
122.5999984741211 79 -12.932000160217285 0 -1
115.80000305175781 86.0999984741211 -14.965999603271484 0 -1
117.19999694824219 90.30000305175781 -15.361000061035156 0 -1
114.69999694824219 80.9000015258789 -13.892999649047852 0 -1
116.0999984741211 92.5 -14.871000289916992 0 -1
112.5999984741211 85.4000015258789 -16.08300018310547 0 -1
120.9000015258789 82.69999694824219 -13.526000022888184 0 -1
115.5 88.9000015258789 -15.798999786376953 0 -1
122.0999984741211 81.5999984741211 -13.54800033569336 0 -1
111.30000305175781 80 -12.152000427246094 0 -1
118.30000305175781 86.80000305175781 -13.996999740600586 0 -1
121.30000305175781 87.19999694824219 -15.378999710083008 0 -1
117.80000305175781 89 -13.649999618530273 0 -1
120.5999984741211 78.80000305175781 -12.32800006866455 0 -1
123 86.9000015258789 -14.746999740600586 0 -1
118.9000015258789 76.30000305175781 -12.854000091552734 0 -1
118.9000015258789 87.5999984741211 -13.710000038146973 0 -1
119 87.30000305175781 -13.729999542236328 0 -1
112 87.9000015258789 -15.739999771118164 0 -1
114 87.4000015258789 -15.14799976348877 0 -1
122.80000305175781 87.5999984741211 -14.482000350952148 0 -1
118 93.80000305175781 -13.517999649047852 0 -1
121.0999984741211 80 -13.427000045776367 0 -1
115.30000305175781 84.30000305175781 -15.579999923706055 0 -1
122.30000305175781 88.19999694824219 -14.956999778747559 0 -1
117.5 84.30000305175781 -13.99899959564209 0 -1
116.69999694824219 90.69999694824219 -15.696000099182129 0 -1
115.9000015258789 89.9000015258789 -16.329999923706055 0 -1
120 79.0999984741211 -13.5600004196167 0 -1
122 78.5999984741211 -12.79699993133545 0 -1
117.4000015258789 86.69999694824219 -13.829000473022461 0 -1
118.5999984741211 83 -13.769000053405762 0 -1
112.4000015258789 90.19999694824219 -15.534000396728516 0 -1
120 95 -13.21500015258789 0 -1
113.5999984741211 76.4000015258789 -13.532999992370605 0 -1
120.69999694824219 77.5999984741211 -12.748000144958496 0 -1
117.5999984741211 93.19999694824219 -13.770000457763672 0 -1
120.80000305175781 90.0999984741211 -9.493000030517578 1 -1
113.19999694824219 90.30000305175781 -15.859999656677246 0 -1
116.69999694824219 77.4000015258789 -11.961999893188477 0 -1
121.80000305175781 87.9000015258789 -15.51099967956543 0 -1
121.5 85.5999984741211 -14.449000358581543 0 -1
111.4000015258789 74.5999984741211 -13.032999992370605 0 -1
111.80000305175781 87.80000305175781 -15.717000007629395 0 -1
117.0999984741211 85.9000015258789 -13.774999618530273 0 -1
118.4000015258789 89 -14.079000473022461 0 -1
110.80000305175781 80.30000305175781 -12.069000244140625 0 -1
118.69999694824219 82.4000015258789 -13.404999732971191 0 -1
114.80000305175781 80.30000305175781 -12.98799991607666 0 -1
113.19999694824219 74.9000015258789 -13.654999732971191 0 -1
118.30000305175781 86.9000015258789 -13.949999809265137 0 -1
119.0999984741211 93.30000305175781 -14.98799991607666 0 -1
121 82.4000015258789 -13.758000373840332 0 -1
122.4000015258789 77.69999694824219 -11.854999542236328 0 -1
123 86.80000305175781 -14.673999786376953 0 -1
113.0999984741211 76.5999984741211 -13.848999977111816 0 -1
114.0999984741211 84.5 -15.272000312805176 0 -1
118.19999694824219 84 -14.512999534606934 0 -1
116.19999694824219 75.69999694824219 -12.680999755859375 0 -1
114.19999694824219 92.0999984741211 -15.680000305175781 0 -1
118.5 89.5999984741211 -13.927000045776367 0 -1
119.5999984741211 77.80000305175781 -11.914999961853027 0 -1
112.69999694824219 77.0999984741211 -13.791000366210938 0 -1
115.0999984741211 85.69999694824219 -15.392999649047852 0 -1
122 78.69999694824219 -12.9350004196167 0 -1
118.0999984741211 80.5999984741211 -13.982999801635742 0 -1
118 93.69999694824219 -13.793000221252441 0 -1
120.69999694824219 77 -11.57800006866455 0 -1
117.19999694824219 81 -12.006999969482422 0 -1
112.4000015258789 90.30000305175781 -15.508999824523926 0 -1
116.30000305175781 79.4000015258789 -11.744999885559082 0 -1
119.5 91.69999694824219 -14.800999641418457 0 -1
113.5 89.69999694824219 -16.093000411987305 0 -1
113.30000305175781 78.30000305175781 -13.85200023651123 0 -1
118.80000305175781 77.5999984741211 -12.642999649047852 0 -1
