VERSION .7
FIELDS x y z label object
SIZE 4 4 4 4 4
TYPE F F F I I
COUNT 1 1 1 1 1
WIDTH 866
HEIGHT 1
POINTS 866
VIEWPOINT 0 0 0 1 0 0 0
DATA ascii
121.69999694824219 79.30000305175781 -12.45300006866455 0 -1
116.0999984741211 78.69999694824219 -13.46399974822998 0 -1
114.5 81.0999984741211 -13.835000038146973 0 -1
122.9000015258789 83.69999694824219 -13.428999900817871 0 -1
119.9000015258789 89.5999984741211 -14.144000053405762 0 -1
122.5999984741211 84.5999984741211 -14.1899995803833 0 -1
116 89.0999984741211 -15.437999725341797 0 -1
115.5999984741211 88.5 -15.597000122070312 0 -1
111.5999984741211 83.5999984741211 -15.380000114440918 0 -1
115.30000305175781 80.69999694824219 -12.729999542236328 0 -1
115.0999984741211 89.30000305175781 -15.711999893188477 0 -1
113.80000305175781 83.19999694824219 -14.758999824523926 0 -1
111.69999694824219 76.4000015258789 -12.807999610900879 0 -1
118.5999984741211 79.4000015258789 -12.987000465393066 0 -1
119.5 88.0999984741211 -14.548999786376953 0 -1
121.80000305175781 83.30000305175781 -13.913000106811523 0 -1
120.5 87.30000305175781 -14.138999938964844 0 -1
122 85.30000305175781 -13.989999771118164 0 -1
116.4000015258789 75.4000015258789 -13.701000213623047 0 -1
117.5999984741211 89.5999984741211 -14.960000038146973 0 -1
111.9000015258789 79.4000015258789 -11.954000473022461 0 -1
112 75.0999984741211 -11.751999855041504 0 -1
121.9000015258789 88.0999984741211 -13.651000022888184 1 -1
120.4000015258789 86.0999984741211 -13.496000289916992 0 -1
122.4000015258789 86.4000015258789 -14.878999710083008 0 -1
118.30000305175781 91.5 -14.659000396728516 0 -1
118.19999694824219 78.4000015258789 -11.730999946594238 0 -1
118.5999984741211 94.80000305175781 -12.885000228881836 0 -1
111.4000015258789 78.19999694824219 -12.515000343322754 0 -1
110 76.9000015258789 -10.539999961853027 0 -1
113.5999984741211 86.19999694824219 -16.72599983215332 0 -1
120 90.4000015258789 -14.996000289916992 0 -1
116.69999694824219 77.9000015258789 -13.291999816894531 0 -1
115.9000015258789 84.30000305175781 -14.762999534606934 0 -1
110.80000305175781 76.69999694824219 -10.9350004196167 0 -1
123 82.19999694824219 -13.305999755859375 0 -1
118.9000015258789 81.4000015258789 -13.451000213623047 0 -1
114 84.80000305175781 -14.652000427246094 0 -1
121.19999694824219 77.0999984741211 -10.937000274658203 0 -1
111.30000305175781 76.5 -12.03499984741211 0 -1
121.5999984741211 93.5 -14.729000091552734 0 -1
116.0999984741211 78.5999984741211 -13.472000122070312 0 -1
115.80000305175781 83.5 -14.520000457763672 0 -1
120.19999694824219 79.5999984741211 -13.175999641418457 0 -1
122.9000015258789 83.5999984741211 -13.696999549865723 0 -1
120.69999694824219 81.5999984741211 -13.593999862670898 0 -1
115.69999694824219 86.5999984741211 -14.930999755859375 0 -1
121.69999694824219 94.5999984741211 -12.854000091552734 0 -1
115.4000015258789 77.80000305175781 -13.524999618530273 0 -1
119.5999984741211 83 -13.399999618530273 0 -1
114.5999984741211 80.80000305175781 -13.864999771118164 0 -1
111.5 83 -15.383999824523926 0 -1
114.4000015258789 86.5 -15.39900016784668 0 -1
115.19999694824219 79.80000305175781 -11.70199966430664 0 -1
115.0999984741211 89.9000015258789 -16.320999145507812 0 -1
122.4000015258789 86.5 -14.54800033569336 0 -1
120.19999694824219 79.5 -13.38599967956543 0 -1
120.5 87.4000015258789 -14.121000289916992 0 -1
119.19999694824219 86.19999694824219 -14.564000129699707 0 -1
110 77.69999694824219 -10.107000350952148 0 -1
119.4000015258789 94.80000305175781 -11.923999786376953 0 -1
115 79.4000015258789 -11.793999671936035 0 -1
116.5999984741211 90.4000015258789 -15.904999732971191 0 -1
114.19999694824219 84 -14.967000007629395 0 -1
118 88.0999984741211 -14.92300033569336 0 -1
114.80000305175781 75.9000015258789 -14.15999984741211 0 -1
122.19999694824219 80.80000305175781 -13.831999778747559 0 -1
115.4000015258789 76.80000305175781 -13.977999687194824 0 -1
121.30000305175781 83.69999694824219 -13.987000465393066 0 -1
116 89.19999694824219 -15.409000396728516 0 -1
110.5 78.9000015258789 -10.970000267028809 0 -1
116.0999984741211 78.80000305175781 -13.017000198364258 0 -1
115.80000305175781 83.69999694824219 -14.678999900817871 0 -1
114.5 81.19999694824219 -13.812000274658203 0 -1
113.30000305175781 84.9000015258789 -14.565999984741211 0 -1
116.4000015258789 90.80000305175781 -15.918999671936035 0 -1
117.4000015258789 85.19999694824219 -14.050999641418457 0 -1
121 87 -13.267000198364258 0 -1
118.0999984741211 84.19999694824219 -14.437999725341797 0 -1
117.5999984741211 89.80000305175781 -14.930000305175781 0 -1
120.30000305175781 85.80000305175781 -13.800000190734863 0 -1
117.9000015258789 88.9000015258789 -14.92300033569336 0 -1
115.30000305175781 80.0999984741211 -11.633000373840332 0 -1
118.4000015258789 79.19999694824219 -12.284000396728516 0 -1
117.80000305175781 91.5999984741211 -14.909000396728516 0 -1
121.19999694824219 77.30000305175781 -10.845999717712402 0 -1
121.4000015258789 83.9000015258789 -13.670000076293945 0 -1
114.69999694824219 77.30000305175781 -13.64799976348877 0 -1
122.5999984741211 84.5 -14.055000305175781 0 -1
118.69999694824219 78.80000305175781 -12.437000274658203 0 -1
122.0999984741211 82.0999984741211 -13.871999740600586 0 -1
122.69999694824219 91.9000015258789 -12.88599967956543 1 -1
121.69999694824219 79.19999694824219 -12.668000221252441 0 -1
120.9000015258789 86.4000015258789 -13.467000007629395 0 -1
118.30000305175781 91.30000305175781 -14.659000396728516 0 -1
120.80000305175781 85.4000015258789 -13.961999893188477 0 -1
114.9000015258789 79.30000305175781 -11.78499984741211 0 -1
114.80000305175781 75.80000305175781 -14.21500015258789 0 -1
119 82.5999984741211 -13.413999557495117 0 -1
114.0999984741211 87.19999694824219 -15.99899959564209 0 -1
116.19999694824219 78.19999694824219 -11.23900032043457 0 -1
122.69999694824219 76.5 -11.071000099182129 0 -1
116.30000305175781 91.19999694824219 -14.866999626159668 0 -1
118.5 78 -11.97700023651123 0 -1
114.30000305175781 83.0999984741211 -14.972999572753906 0 -1
112.80000305175781 82.5 -13.486000061035156 0 -1
121.0999984741211 93.80000305175781 -13.277000427246094 0 -1
115.9000015258789 84.4000015258789 -14.765999794006348 0 -1
111.69999694824219 76.5 -12.904999732971191 0 -1
119.0999984741211 82.9000015258789 -13.256999969482422 0 -1
119.4000015258789 79.4000015258789 -13.604999542236328 0 -1
115.5 84.69999694824219 -14.751999855041504 0 -1
119.69999694824219 94 -13.722000122070312 0 -1
113.5999984741211 86.30000305175781 -16.759000778198242 0 -1
120 90.5 -14.954000473022461 0 -1
114.69999694824219 77.19999694824219 -13.737000465393066 0 -1
116.5 89.19999694824219 -15.788000106811523 0 -1
111.30000305175781 76.30000305175781 -12.03499984741211 0 -1
119.80000305175781 93.5999984741211 -13.899999618530273 0 -1
112.0999984741211 80.30000305175781 -12.887999534606934 0 -1
118.80000305175781 80.19999694824219 -13.83899974822998 0 -1
118.9000015258789 81.30000305175781 -13.567000389099121 0 -1
112.9000015258789 80.0999984741211 -13.685999870300293 0 -1
121.30000305175781 83.5 -13.987000465393066 0 -1
121.80000305175781 83.4000015258789 -13.984999656677246 0 -1
120.19999694824219 94.9000015258789 -12.982999801635742 0 -1
117.5 88 -13.991000175476074 0 -1
110.80000305175781 76.5999984741211 -10.961999893188477 0 -1
120.0999984741211 92.0999984741211 -15.72599983215332 0 -1
121 86.80000305175781 -13.392000198364258 0 -1
121.69999694824219 94.5 -13.107999801635742 0 -1
116.5999984741211 90.5999984741211 -15.774999618530273 0 -1
117.69999694824219 84.30000305175781 -14.26200008392334 0 -1
111.9000015258789 79.80000305175781 -11.892000198364258 0 -1
123 82.4000015258789 -13.305999755859375 0 -1
122.30000305175781 92.9000015258789 -15.989999771118164 0 -1
119.5999984741211 83.0999984741211 -13.218000411987305 0 -1
113.9000015258789 85.80000305175781 -14.782999992370605 0 -1
118.19999694824219 78.80000305175781 -12.093999862670898 0 -1
115.4000015258789 92.19999694824219 -14.298999786376953 0 -1
122.5 82.80000305175781 -13.559000015258789 0 -1
111.5 83.0999984741211 -15.42199993133545 0 -1
120.69999694824219 81.5 -13.53600025177002 0 -1
116.5 89.0999984741211 -15.899999618530273 0 -1
114.4000015258789 86.4000015258789 -15.244999885559082 0 -1
110 77.80000305175781 -10.121000289916992 0 -1
118.80000305175781 80.30000305175781 -12.935999870300293 0 -1
122.4000015258789 89.5999984741211 -9.779000282287598 1 -1
122.5999984741211 83.4000015258789 -13.517000198364258 0 -1
112.9000015258789 80 -12.996999740600586 0 -1
115 79.5 -11.517999649047852 0 -1
116.5999984741211 90.5 -15.890000343322754 0 -1
120.5999984741211 91.80000305175781 -15.875 0 -1
113 81.19999694824219 -13.675999641418457 0 -1
121.0999984741211 93.69999694824219 -13.97599983215332 0 -1
121.5999984741211 93.5999984741211 -14.083999633789062 0 -1
121.5 89.30000305175781 -9.638999938964844 1 -1
110.4000015258789 78.80000305175781 -10.940999984741211 0 -1
115.4000015258789 76.9000015258789 -13.956999778747559 0 -1
119.69999694824219 76.5999984741211 -12.166999816894531 0 -1
121 86.9000015258789 -13.454999923706055 0 -1
113.30000305175781 84.5999984741211 -14.458999633789062 0 -1
118.5999984741211 79.80000305175781 -13.288999557495117 0 -1
119.5 88.5 -14.416000366210938 0 -1
113.80000305175781 83.0999984741211 -14.680999755859375 0 -1
120.19999694824219 94.80000305175781 -11.956999778747559 0 -1
117.30000305175781 83.80000305175781 -13.85099983215332 0 -1
112.0999984741211 80.5 -12.767000198364258 0 -1
119.30000305175781 80.30000305175781 -13.406000137329102 0 -1
119.80000305175781 76.19999694824219 -11.258000373840332 0 -1
122.80000305175781 77.69999694824219 -11.741999626159668 0 -1
113.4000015258789 84.19999694824219 -14.460000038146973 0 -1
117.4000015258789 85 -13.621999740600586 0 -1
120.30000305175781 86 -13.770000457763672 0 -1
122.19999694824219 78.9000015258789 -12.631999969482422 0 -1
115.80000305175781 83.5999984741211 -14.684000015258789 0 -1
114.5 81.30000305175781 -13.932000160217285 0 -1
111.5999984741211 83.5 -15.284000396728516 0 -1
118 88.5 -14.895000457763672 0 -1
115.30000305175781 80 -11.656000137329102 0 -1
122.69999694824219 77.0999984741211 -11.491000175476074 0 -1
116.69999694824219 78 -12.008999824523926 0 -1
118.0999984741211 84.30000305175781 -14.562000274658203 0 -1
121.5 89.4000015258789 -13.489999771118164 1 -1
120.4000015258789 86.19999694824219 -13.37600040435791 0 -1
122.19999694824219 94.30000305175781 -14.369999885559082 0 -1
121.19999694824219 92.5999984741211 -15.748000144958496 0 -1
122.4000015258789 89.69999694824219 -9.654000282287598 1 -1
119.80000305175781 76.0999984741211 -11.364999771118164 0 -1
111.4000015258789 78.30000305175781 -11.645999908447266 0 -1
115.19999694824219 78.9000015258789 -11.89900016784668 0 -1
119.9000015258789 88.4000015258789 -14.217000007629395 0 -1
119 82.5 -13.416000366210938 0 -1
113.4000015258789 84.0999984741211 -14.390999794006348 0 -1
120.5999984741211 91.9000015258789 -15.944000244140625 0 -1
113.69999694824219 88 -16.981000900268555 0 -1
116.19999694824219 78.0999984741211 -11.555000305175781 0 -1
117.19999694824219 94.69999694824219 -11.939000129699707 0 -1
118.4000015258789 84.69999694824219 -14.265000343322754 0 -1
119.4000015258789 79.5999984741211 -13.79699993133545 0 -1
119.0999984741211 82.69999694824219 -13.413999557495117 0 -1
113.30000305175781 84.5 -14.336999893188477 0 -1
115.5 84.5 -14.942999839782715 0 -1
114 84.9000015258789 -14.680999755859375 0 -1
111.30000305175781 76.4000015258789 -12.527000427246094 0 -1
111.80000305175781 75.69999694824219 -13.918000221252441 0 -1
119.30000305175781 80.19999694824219 -13.387999534606934 0 -1
122.9000015258789 83.5 -13.489999771118164 0 -1
119.69999694824219 94.19999694824219 -13.753999710083008 0 -1
117.4000015258789 85.0999984741211 -13.994999885559082 0 -1
114.5999984741211 80.69999694824219 -12.803999900817871 0 -1
121.9000015258789 90 -9.961000442504883 1 -1
122.0999984741211 83.80000305175781 -13.666999816894531 0 -1
120.9000015258789 86.5 -13.406000137329102 0 -1
110.4000015258789 78.5999984741211 -10.925999641418457 0 -1
117.69999694824219 79.5 -11.904999732971191 0 -1
120.80000305175781 85.30000305175781 -13.946999549865723 0 -1
115.0999984741211 90 -15.968000411987305 0 -1
122.5 82.69999694824219 -13.467000007629395 0 -1
117.80000305175781 91.19999694824219 -14.965999603271484 0 -1
111.0999984741211 82.0999984741211 -15.038000106811523 0 -1
117.0999984741211 89.80000305175781 -15.366999626159668 0 -1
116.30000305175781 91.30000305175781 -14.972000122070312 0 -1
115.69999694824219 86.69999694824219 -14.857000350952148 0 -1
118.69999694824219 78.4000015258789 -12.423999786376953 0 -1
115.5 84.5999984741211 -14.937999725341797 0 -1
115.80000305175781 82.30000305175781 -13.347000122070312 0 -1
111.5999984741211 83.4000015258789 -15.305999755859375 0 -1
118 88.4000015258789 -14.91100025177002 0 -1
120 90.5999984741211 -14.99899959564209 0 -1
123 82 -13.241000175476074 0 -1
118.9000015258789 81.19999694824219 -13.590999603271484 0 -1
121 86.69999694824219 -13.348999977111816 0 -1
114.19999694824219 84.0999984741211 -14.961000442504883 0 -1
110.80000305175781 76 -10.984999656677246 0 -1
119.69999694824219 94.0999984741211 -13.824000358581543 0 -1
120.19999694824219 79.4000015258789 -13.175999641418457 0 -1
120.5 87.5 -14.102999687194824 0 -1
114.80000305175781 76 -14.21500015258789 0 -1
121.69999694824219 79.0999984741211 -12.534000396728516 0 -1
116.19999694824219 79.5999984741211 -11.829999923706055 0 -1
120.0999984741211 92 -15.678000450134277 0 -1
110 77.5999984741211 -10.112000465393066 0 -1
112 74.9000015258789 -11.666000366210938 0 -1
116 89.30000305175781 -15.380000114440918 0 -1
113.9000015258789 86 -14.795999526977539 0 -1
121.69999694824219 94.4000015258789 -13.307999610900879 0 -1
118.19999694824219 78.5999984741211 -11.852999687194824 0 -1
118.5999984741211 95 -11.920999526977539 0 -1
117 88.69999694824219 -15.482000350952148 0 -1
111.69999694824219 76.0999984741211 -12.916999816894531 0 -1
115 79.5999984741211 -12.652999877929688 0 -1
117.80000305175781 91.30000305175781 -14.954000473022461 0 -1
113 81.4000015258789 -13.756999969482422 0 -1
121.9000015258789 90.0999984741211 -9.98900032043457 1 -1
114 84.5999984741211 -14.720000267028809 0 -1
121.19999694824219 76.9000015258789 -11.307000160217285 0 -1
121.5999984741211 93.30000305175781 -14.729000091552734 0 -1
121.4000015258789 83.5 -13.958999633789062 0 -1
110.5 79 -10.899999618530273 0 -1
122 84.69999694824219 -14.076000213623047 0 -1
115.0999984741211 90.0999984741211 -15.930000305175781 0 -1
122.5999984741211 83.30000305175781 -13.687999725341797 0 -1
115.5999984741211 88.4000015258789 -15.611000061035156 0 -1
121.80000305175781 83 -13.916999816894531 0 -1
115.19999694824219 79.0999984741211 -11.89900016784668 0 -1
116.4000015258789 90.69999694824219 -15.930999755859375 0 -1
122.5 82.9000015258789 -13.520999908447266 0 -1
119.80000305175781 93.5 -14.602999687194824 0 -1
118.69999694824219 78.5 -12.5 0 -1
120.30000305175781 85.9000015258789 -13.788999557495117 0 -1
113.5999984741211 86.4000015258789 -16.8799991607666 0 -1
122.19999694824219 79.0999984741211 -12.564000129699707 0 -1
122.80000305175781 77.80000305175781 -11.609999656677246 0 -1
112.0999984741211 80.4000015258789 -12.87600040435791 0 -1
112.80000305175781 82.9000015258789 -13.987000465393066 0 -1
114.9000015258789 79.19999694824219 -12.718000411987305 0 -1
121.0999984741211 94.19999694824219 -13.097999572753906 0 -1
118.5 85.80000305175781 -13.765000343322754 0 -1
119.69999694824219 76.69999694824219 -11.902000427246094 0 -1
114.69999694824219 77.0999984741211 -13.829000473022461 0 -1
113.30000305175781 84.69999694824219 -14.517999649047852 0 -1
121.0999984741211 76.69999694824219 -11.343000411987305 0 -1
114.19999694824219 84.19999694824219 -14.967000007629395 0 -1
117 88.5999984741211 -15.51099967956543 0 -1
114.0999984741211 87.30000305175781 -15.994999885559082 0 -1
114.30000305175781 83 -14.925000190734863 0 -1
117.69999694824219 79.5999984741211 -11.842000007629395 0 -1
115.4000015258789 77 -13.942999839782715 0 -1
120.5 87.0999984741211 -13.652000427246094 0 -1
116.5999984741211 76.4000015258789 -13.86299991607666 0 -1
121.30000305175781 83.9000015258789 -13.737000465393066 0 -1
115.5 84.9000015258789 -15.13599967956543 0 -1
121.5999984741211 93.19999694824219 -14.810999870300293 0 -1
110.5 79.0999984741211 -10.9350004196167 0 -1
121.9000015258789 89.9000015258789 -9.98900032043457 1 -1
119.4000015258789 79.5 -13.508999824523926 0 -1
119.0999984741211 82.80000305175781 -13.508000373840332 0 -1
114.5 81.4000015258789 -13.932000160217285 0 -1
115.19999694824219 79 -11.656000137329102 0 -1
120.9000015258789 86.0999984741211 -13.592000007629395 0 -1
115.69999694824219 86.9000015258789 -14.857000350952148 0 -1
118.0999984741211 84.4000015258789 -14.3149995803833 0 -1
112.9000015258789 79.9000015258789 -12.906000137329102 0 -1
111.30000305175781 76.19999694824219 -11.987000465393066 0 -1
120.30000305175781 85.5999984741211 -13.918000221252441 0 -1
119.5999984741211 82.69999694824219 -13.258999824523926 0 -1
114.4000015258789 86.30000305175781 -15.21399974822998 0 -1
117.19999694824219 94.5999984741211 -11.993000030517578 0 -1
119.19999694824219 86.0999984741211 -14.435999870300293 0 -1
116.30000305175781 91.4000015258789 -14.897000312805176 0 -1
114.69999694824219 77 -13.83899974822998 0 -1
110.4000015258789 78.69999694824219 -10.984999656677246 0 -1
111.4000015258789 78.4000015258789 -11.795999526977539 0 -1
119.9000015258789 88.30000305175781 -14.343000411987305 0 -1
122.69999694824219 77.19999694824219 -11.557000160217285 0 -1
116 86.80000305175781 -14.972000122070312 0 -1
117.9000015258789 89 -14.901000022888184 0 -1
112.80000305175781 82.69999694824219 -13.821000099182129 0 -1
116.4000015258789 75.69999694824219 -13.838000297546387 0 -1
116.69999694824219 95 -11.52299976348877 0 -1
116.5999984741211 91.69999694824219 -14.843000411987305 0 -1
118.5 86 -13.928999900817871 0 -1
115.30000305175781 79.9000015258789 -11.633000373840332 0 -1
120.80000305175781 85.19999694824219 -13.991000175476074 0 -1
113.9000015258789 85.9000015258789 -14.937999725341797 0 -1
121.0999984741211 94.0999984741211 -13.218999862670898 0 -1
114.0999984741211 87.4000015258789 -15.99899959564209 0 -1
116.0999984741211 78.9000015258789 -12.932999610900879 0 -1
111.0999984741211 82.69999694824219 -15.36299991607666 0 -1
116.19999694824219 79.5 -11.78600025177002 0 -1
116.5 89 -14.972999572753906 0 -1
122 84.5 -14.085000038146973 0 -1
115.5999984741211 88.19999694824219 -15.53499984741211 0 -1
118.5999984741211 79.69999694824219 -13.10200023651123 0 -1
121.4000015258789 83.5999984741211 -13.987000465393066 0 -1
113.69999694824219 87.9000015258789 -16.964000701904297 0 -1
115.80000305175781 82.19999694824219 -13.392000198364258 0 -1
117.0999984741211 89.69999694824219 -15.473999977111816 0 -1
120.0999984741211 91.80000305175781 -15.678000450134277 0 -1
119.80000305175781 92.9000015258789 -15.92300033569336 0 -1
114.9000015258789 79 -12.718000411987305 0 -1
114.80000305175781 76.0999984741211 -14.3149995803833 0 -1
121.69999694824219 79 -12.668000221252441 0 -1
113 81.30000305175781 -13.70199966430664 0 -1
119.5 88.4000015258789 -14.432999610900879 0 -1
111.4000015258789 78.5 -11.91100025177002 0 -1
110.80000305175781 75.9000015258789 -10.958000183105469 0 -1
118.19999694824219 78.69999694824219 -11.996000289916992 0 -1
118.30000305175781 91.19999694824219 -14.670999526977539 0 -1
122.19999694824219 94.4000015258789 -14.51099967956543 0 -1
118.9000015258789 80.5999984741211 -13.267999649047852 0 -1
115 79.69999694824219 -12.53600025177002 0 -1
116 86.9000015258789 -14.993000030517578 0 -1
116.5999984741211 76.30000305175781 -13.833000183105469 0 -1
115.9000015258789 85.5999984741211 -14.434000015258789 0 -1
120.69999694824219 81.9000015258789 -13.651000022888184 0 -1
110 77.5 -10.067999839782715 0 -1
118.9000015258789 91.9000015258789 -14.984999656677246 0 -1
120.5999984741211 92 -15.875 0 -1
120 90.19999694824219 -14.996000289916992 0 -1
119 83.4000015258789 -13.911999702453613 0 -1
116.69999694824219 81.69999694824219 -13.942999839782715 0 -1
121.5999984741211 93.4000015258789 -14.810999870300293 0 -1
113.80000305175781 83 -14.4350004196167 0 -1
119.19999694824219 85.9000015258789 -13.645000457763672 0 -1
122.80000305175781 77.5999984741211 -11.57800006866455 0 -1
112.0999984741211 80.5999984741211 -12.800999641418457 0 -1
111.69999694824219 76.19999694824219 -12.883000373840332 0 -1
117.4000015258789 82.9000015258789 -13.866000175476074 0 -1
121.80000305175781 83.0999984741211 -14.194999694824219 0 -1
119.80000305175781 79.5999984741211 -13.246999740600586 0 -1
114 84.5 -14.821999549865723 0 -1
116.5 88.9000015258789 -14.944999694824219 0 -1
117 88.80000305175781 -15.663000106811523 0 -1
122 84.5999984741211 -13.98900032043457 0 -1
120.4000015258789 86.30000305175781 -13.315999984741211 0 -1
122.9000015258789 83.9000015258789 -13.96500015258789 0 -1
122.4000015258789 89.80000305175781 -9.911999702453613 1 -1
122.5999984741211 83.19999694824219 -13.517000198364258 0 -1
113.5999984741211 86.5 -16.854999542236328 0 -1
115.5999984741211 88.30000305175781 -15.53499984741211 0 -1
113.69999694824219 86.19999694824219 -15.470999717712402 0 -1
118.19999694824219 79 -12.128000259399414 0 -1
118.69999694824219 94.5 -12.925999641418457 0 -1
114.4000015258789 85.69999694824219 -14.928999900817871 0 -1
121.5 89.5 -9.638999938964844 1 -1
115.0999984741211 89.5999984741211 -15.741999626159668 0 -1
122.19999694824219 79 -12.897000312805176 0 -1
113 80.5 -13.652999877929688 0 -1
113.80000305175781 82.9000015258789 -14.538999557495117 0 -1
118 89.80000305175781 -14.763999938964844 0 -1
120.0999984741211 91.9000015258789 -15.72599983215332 0 -1
119.80000305175781 92.80000305175781 -15.911999702453613 0 -1
113.4000015258789 84 -14.460000038146973 0 -1
115.80000305175781 82.4000015258789 -13.392000198364258 0 -1
121.69999694824219 94.30000305175781 -13.208000183105469 0 -1
118.4000015258789 84.5999984741211 -14.265000343322754 0 -1
120.69999694824219 81.80000305175781 -13.527000427246094 0 -1
116.4000015258789 91.0999984741211 -14.968000411987305 0 -1
117.69999694824219 79.4000015258789 -11.854999542236328 0 -1
111.80000305175781 75.5999984741211 -14.579000473022461 0 -1
112.80000305175781 82.80000305175781 -13.904000282287598 0 -1
117.5 88.0999984741211 -14.982000350952148 0 -1
115.4000015258789 77.0999984741211 -13.956999778747559 0 -1
122.0999984741211 83.9000015258789 -13.487000465393066 0 -1
118.80000305175781 81.5 -13.451000213623047 0 -1
116.5999984741211 76.5 -13.798999786376953 0 -1
118.5999984741211 80 -13.065999984741211 0 -1
110.4000015258789 78.5 -10.788999557495117 0 -1
115.19999694824219 79.19999694824219 -11.793999671936035 0 -1
120.19999694824219 79.80000305175781 -13.211000442504883 0 -1
122.9000015258789 83.80000305175781 -13.696999549865723 0 -1
122.4000015258789 89.9000015258789 -9.753000259399414 1 -1
120.80000305175781 85.0999984741211 -14.095999717712402 0 -1
120.5 87.19999694824219 -14.121000289916992 0 -1
119.69999694824219 92.19999694824219 -15.868000030517578 0 -1
115.69999694824219 86.80000305175781 -14.930999755859375 0 -1
116.5999984741211 91.9000015258789 -13.96399974822998 0 -1
119.0999984741211 89.30000305175781 -14.369999885559082 0 -1
111.9000015258789 79.69999694824219 -11.98799991607666 0 -1
119.5999984741211 82.80000305175781 -13.210000038146973 0 -1
116.0999984741211 79.0999984741211 -12.932999610900879 0 -1
111.5999984741211 83.30000305175781 -15.302000045776367 0 -1
120.9000015258789 86.19999694824219 -13.432999610900879 0 -1
115.0999984741211 89.69999694824219 -16.201000213623047 0 -1
116.69999694824219 81.9000015258789 -14.093000411987305 0 -1
118.69999694824219 81.19999694824219 -13.350000381469727 0 -1
117.9000015258789 89.19999694824219 -14.887999534606934 0 -1
119.9000015258789 88.19999694824219 -14.388999938964844 0 -1
119.80000305175781 79.5 -13.835000038146973 0 -1
120.19999694824219 79.69999694824219 -13.215999603271484 0 -1
122.19999694824219 79.19999694824219 -12.557999610900879 0 -1
122.5 82.5 -13.467000007629395 0 -1
119.5 87.69999694824219 -14.609999656677246 0 -1
117.19999694824219 94.5 -11.939000129699707 0 -1
118.4000015258789 84.5 -14.281999588012695 0 -1
119.19999694824219 86 -14.307999610900879 0 -1
112 74.80000305175781 -11.57699966430664 0 -1
116.30000305175781 91.5 -14.972000122070312 0 -1
114 84.69999694824219 -14.652999877929688 0 -1
112.9000015258789 81.9000015258789 -13.57699966430664 0 -1
114.5999984741211 75 -13.800000190734863 0 -1
112 74.69999694824219 -11.531999588012695 0 -1
122.69999694824219 77.30000305175781 -11.520000457763672 0 -1
120.4000015258789 86.5 -13.315999984741211 0 -1
117.9000015258789 89.0999984741211 -14.878999710083008 0 -1
113.30000305175781 83.30000305175781 -13.982000350952148 0 -1
111.9000015258789 78 -12.885000228881836 0 -1
118.0999984741211 83.5 -13.571000099182129 0 -1
113.9000015258789 84 -14.961000442504883 0 -1
121.4000015258789 83.69999694824219 -14.189000129699707 0 -1
110.5 79.19999694824219 -10.970000267028809 0 -1
116.0999984741211 79 -11.123000144958496 0 -1
114.19999694824219 87.9000015258789 -16.174999237060547 0 -1
120.0999984741211 91.69999694824219 -15.54800033569336 0 -1
117.0999984741211 89.5999984741211 -15.371000289916992 0 -1
122.69999694824219 76.80000305175781 -11.248000144958496 0 -1
122.30000305175781 93.19999694824219 -14.479999542236328 0 -1
113.5 76.5 -14.154999732971191 0 -1
121.69999694824219 78.9000015258789 -12.690999984741211 0 -1
116.5999984741211 91.80000305175781 -14.64900016784668 0 -1
116.19999694824219 79.4000015258789 -11.696000099182129 0 -1
118.80000305175781 90.69999694824219 -14.581000328063965 0 -1
119 83.30000305175781 -13.701000213623047 0 -1
115.5999984741211 88.0999984741211 -15.534000396728516 0 -1
114.30000305175781 89 -16.841999053955078 0 -1
119.69999694824219 78.9000015258789 -12.571999549865723 0 -1
111.5999984741211 83.19999694824219 -15.305999755859375 0 -1
115.30000305175781 80.30000305175781 -12.734000205993652 0 -1
118.9000015258789 80.5 -13.22700023651123 0 -1
114.9000015258789 79.0999984741211 -12.305000305175781 0 -1
117.5 88.30000305175781 -14.982000350952148 0 -1
118.9000015258789 91.80000305175781 -14.949000358581543 0 -1
120 90.30000305175781 -14.907999992370605 0 -1
117.4000015258789 82.69999694824219 -14.128999710083008 0 -1
121.0999984741211 76.5999984741211 -11.331000328063965 0 -1
112.9000015258789 81.80000305175781 -13.623000144958496 0 -1
118.30000305175781 77.69999694824219 -12.038000106811523 0 -1
110.80000305175781 75.80000305175781 -10.717000007629395 0 -1
122 84.9000015258789 -14.076000213623047 0 -1
115.9000015258789 85.69999694824219 -14.343000411987305 0 -1
118.5 85.9000015258789 -13.739999771118164 0 -1
113.30000305175781 83.19999694824219 -13.940999984741211 0 -1
116.4000015258789 90.9000015258789 -15.95199966430664 0 -1
121.30000305175781 83.80000305175781 -13.704000473022461 0 -1
118.30000305175781 91.0999984741211 -14.647000312805176 0 -1
117 88.9000015258789 -15.592000007629395 0 -1
119.19999694824219 85.80000305175781 -13.708999633789062 0 -1
117.4000015258789 82.80000305175781 -13.909000396728516 0 -1
115 79.80000305175781 -12.652999877929688 0 -1
118.19999694824219 79.0999984741211 -12.157999992370605 0 -1
113.19999694824219 86.0999984741211 -16.81100082397461 0 -1
111.30000305175781 76.0999984741211 -11.71500015258789 0 -1
118.80000305175781 90.80000305175781 -14.625 0 -1
123 82.0999984741211 -13.59000015258789 0 -1
118.30000305175781 77.80000305175781 -11.425999641418457 0 -1
114.4000015258789 85.5999984741211 -14.821999549865723 0 -1
112.80000305175781 83.0999984741211 -14.17199993133545 0 -1
119.69999694824219 92.4000015258789 -15.868000030517578 0 -1
111.69999694824219 75.80000305175781 -13.918000221252441 0 -1
117.5 88.19999694824219 -14.519000053405762 0 -1
115.69999694824219 87 -15.375 0 -1
118.5 85.5999984741211 -13.767999649047852 0 -1
119.0999984741211 89.0999984741211 -14.45300006866455 0 -1
120.30000305175781 85.69999694824219 -13.892999649047852 0 -1
113 80.4000015258789 -13.628000259399414 0 -1
121 86.5999984741211 -13.373000144958496 0 -1
118.5999984741211 80.0999984741211 -12.777999877929688 0 -1
121.4000015258789 83.19999694824219 -14.034000396728516 0 -1
114.30000305175781 88.9000015258789 -16.857999801635742 0 -1
117.0999984741211 90.0999984741211 -15.437000274658203 0 -1
115.19999694824219 79.30000305175781 -11.517999649047852 0 -1
113.9000015258789 84.19999694824219 -14.942000389099121 0 -1
121.0999984741211 94 -13.277000427246094 0 -1
114.69999694824219 76.9000015258789 -13.829000473022461 0 -1
116.4000015258789 75.5999984741211 -13.803000450134277 0 -1
119.80000305175781 92.69999694824219 -15.901000022888184 0 -1
119.5999984741211 82.9000015258789 -13.442000389099121 0 -1
120.9000015258789 86.80000305175781 -13.348999977111816 0 -1
113.4000015258789 83.9000015258789 -14.25 0 -1
114.0999984741211 87.5 -16.072999954223633 0 -1
117.80000305175781 93 -13.994999885559082 0 -1
117.69999694824219 79.80000305175781 -11.597999572753906 0 -1
115.4000015258789 77.19999694824219 -13.942999839782715 0 -1
120.80000305175781 85 -14.315999984741211 0 -1
114.9000015258789 78.9000015258789 -12.48799991607666 0 -1
119.69999694824219 92.30000305175781 -15.833000183105469 0 -1
119.5 87.80000305175781 -14.888999938964844 0 -1
122.0999984741211 83.5 -13.59000015258789 0 -1
116.69999694824219 81.80000305175781 -13.87399959564209 0 -1
122.19999694824219 94.5 -14.227999687194824 0 -1
116 87 -14.800000190734863 0 -1
120.5999984741211 92.0999984741211 -15.944000244140625 0 -1
121.0999984741211 93.4000015258789 -14.769000053405762 0 -1
117.9000015258789 89.30000305175781 -14.848999977111816 0 -1
119.69999694824219 79.0999984741211 -12.729999542236328 0 -1
121.19999694824219 93 -15.440999984741211 0 -1
122.5999984741211 83.0999984741211 -13.545000076293945 0 -1
118.19999694824219 78.9000015258789 -11.996000289916992 0 -1
118.69999694824219 94.5999984741211 -12.833999633789062 0 -1
110 77.4000015258789 -10.09000015258789 0 -1
117.19999694824219 94.4000015258789 -11.840999603271484 0 -1
114.69999694824219 76.80000305175781 -13.83899974822998 0 -1
115.5 84.80000305175781 -14.279999732971191 0 -1
116.5 88.80000305175781 -14.967000007629395 0 -1
121.5 89.5999984741211 -13.489999771118164 1 -1
111.4000015258789 78.5999984741211 -11.982000350952148 0 -1
120.19999694824219 95 -12.979000091552734 0 -1
119.9000015258789 88.0999984741211 -14.366999626159668 0 -1
121.9000015258789 89.80000305175781 -9.961000442504883 1 -1
112.0999984741211 80.69999694824219 -12.699000358581543 0 -1
120.4000015258789 86.4000015258789 -13.37600040435791 0 -1
121.30000305175781 83.0999984741211 -13.946999549865723 0 -1
115.80000305175781 82 -13.130000114440918 0 -1
117.80000305175781 93.0999984741211 -13.956999778747559 0 -1
113.30000305175781 83.4000015258789 -13.994999885559082 0 -1
113.5 76.4000015258789 -14.16100025177002 0 -1
117.5 88.4000015258789 -14.993000030517578 0 -1
116.69999694824219 94.80000305175781 -11.902999877929688 0 -1
118.30000305175781 90.9000015258789 -14.493000030517578 0 -1
119.4000015258789 76.19999694824219 -11.633999824523926 0 -1
121 86.4000015258789 -13.373000144958496 0 -1
113.4000015258789 83.80000305175781 -14.220999717712402 0 -1
118.0999984741211 83.5999984741211 -13.60200023651123 0 -1
115.30000305175781 80.19999694824219 -12.288999557495117 0 -1
123 82.80000305175781 -12.967000007629395 0 -1
122.30000305175781 93.30000305175781 -14.585000038146973 0 -1
122.69999694824219 76.9000015258789 -11.491000175476074 0 -1
118.9000015258789 80.4000015258789 -12.935999870300293 0 -1
116.30000305175781 91.5999984741211 -14.897000312805176 0 -1
116.0999984741211 79.19999694824219 -11.123000144958496 0 -1
115.9000015258789 85.80000305175781 -14.434000015258789 0 -1
111.0999984741211 82.5 -15.208999633789062 0 -1
118.9000015258789 91.69999694824219 -14.967000007629395 0 -1
119 83.19999694824219 -13.664999961853027 0 -1
113.80000305175781 82.80000305175781 -14.678000450134277 0 -1
114 83.30000305175781 -14.822999954223633 0 -1
116.5999984741211 92 -14.48900032043457 0 -1
118.30000305175781 77.5999984741211 -11.425999641418457 0 -1
118.5999984741211 79.9000015258789 -12.777999877929688 0 -1
111.5999984741211 83.0999984741211 -15.184000015258789 0 -1
118 89.69999694824219 -14.793999671936035 0 -1
119.69999694824219 79 -13.460000038146973 0 -1
116.4000015258789 91 -15.824000358581543 0 -1
118.80000305175781 81.5999984741211 -13.28600025177002 0 -1
117.4000015258789 82.5999984741211 -14.076000213623047 0 -1
113 80.5999984741211 -13.647000312805176 0 -1
118.30000305175781 91 -14.562000274658203 0 -1
111.4000015258789 78.69999694824219 -11.96500015258789 0 -1
120 90.9000015258789 -15.090999603271484 0 -1
118.69999694824219 94.69999694824219 -12.993000030517578 0 -1
120.69999694824219 81.69999694824219 -13.651000022888184 0 -1
113.19999694824219 86.19999694824219 -16.79599952697754 0 -1
120.80000305175781 86 -13.58899974822998 0 -1
116.69999694824219 81.5 -13.777999877929688 0 -1
121.5 89.69999694824219 -10.03600025177002 1 -1
121.80000305175781 83.80000305175781 -14.413000106811523 0 -1
110.4000015258789 78.4000015258789 -10.932000160217285 0 -1
119.0999984741211 89.19999694824219 -14.42199993133545 0 -1
115.0999984741211 89.80000305175781 -16.26099967956543 0 -1
121 86.5 -13.467000007629395 0 -1
113.80000305175781 82.69999694824219 -14.600000381469727 0 -1
110.80000305175781 76.19999694824219 -10.984999656677246 0 -1
120.19999694824219 94.4000015258789 -12.857000350952148 0 -1
118.4000015258789 84.9000015258789 -14.069000244140625 0 -1
114.80000305175781 76.19999694824219 -14.229999542236328 0 -1
111.80000305175781 75.5 -14.331999778747559 0 -1
121.69999694824219 79.80000305175781 -12.621999740600586 0 -1
112.80000305175781 83 -13.937000274658203 0 -1
119.69999694824219 92.5 -15.944999694824219 0 -1
111.69999694824219 75.9000015258789 -12.258000373840332 0 -1
122.19999694824219 79.30000305175781 -12.722999572753906 0 -1
114.0999984741211 88.5999984741211 -16.924999237060547 0 -1
119.5 87.5999984741211 -14.67199993133545 0 -1
114.19999694824219 88 -16.18000030517578 0 -1
122.0999984741211 83.69999694824219 -13.487000465393066 0 -1
118.80000305175781 81.69999694824219 -13.326000213623047 0 -1
118.69999694824219 81.30000305175781 -13.35200023651123 0 -1
121.4000015258789 83.30000305175781 -13.939000129699707 0 -1
111.5 83.5 -15.517000198364258 0 -1
118 89.5999984741211 -14.763999938964844 0 -1
120.69999694824219 81.0999984741211 -13.531999588012695 0 -1
117.0999984741211 90 -15.387999534606934 0 -1
119.80000305175781 79.4000015258789 -13.263999938964844 0 -1
120.4000015258789 86.5999984741211 -13.543999671936035 0 -1
122.19999694824219 94.69999694824219 -14.333999633789062 0 -1
116.19999694824219 79.80000305175781 -11.493000030517578 0 -1
120.19999694824219 79.0999984741211 -11.748000144958496 0 -1
122.4000015258789 90 -9.946000099182129 1 -1
119.0999984741211 89.5 -14.305000305175781 0 -1
112 74.5999984741211 -11.288000106811523 0 -1
123 82.69999694824219 -13.03499984741211 0 -1
113.69999694824219 86.0999984741211 -14.812999725341797 0 -1
115.5999984741211 90 -15.991999626159668 0 -1
116.30000305175781 75.30000305175781 -13.64900016784668 0 -1
114.19999694824219 87.5999984741211 -16.08799934387207 0 -1
121.5999984741211 94 -13.390999794006348 0 -1
115.4000015258789 77.30000305175781 -13.76200008392334 0 -1
122.9000015258789 83.0999984741211 -13.442999839782715 0 -1
121.9000015258789 89.5999984741211 -9.949999809265137 1 -1
120.9000015258789 86.9000015258789 -13.307999610900879 0 -1
118.69999694824219 81.4000015258789 -13.359999656677246 0 -1
113.9000015258789 84.0999984741211 -14.982000350952148 0 -1
110.5 79.30000305175781 -10.975000381469727 0 -1
118.4000015258789 84.80000305175781 -14.265000343322754 0 -1
114.69999694824219 78.80000305175781 -13.130999565124512 0 -1
114.9000015258789 76.69999694824219 -13.946999549865723 0 -1
112.9000015258789 81.69999694824219 -13.605999946594238 0 -1
115.0999984741211 82.19999694824219 -14.223999977111816 0 -1
114.0999984741211 88.69999694824219 -16.927000045776367 0 -1
121.5999984741211 76.5999984741211 -11.307000160217285 0 -1
122.4000015258789 90.0999984741211 -9.927000045776367 1 -1
114.5999984741211 90.19999694824219 -16.208999633789062 0 -1
114.4000015258789 86 -14.947999954223633 0 -1
119.69999694824219 79.19999694824219 -13.710000038146973 0 -1
115.4000015258789 76.30000305175781 -14.369000434875488 0 -1
118.9000015258789 80.80000305175781 -13.65999984741211 0 -1
122.5999984741211 83 -13.482000350952148 0 -1
115.5999984741211 90.0999984741211 -15.942999839782715 0 -1
117.19999694824219 94.30000305175781 -11.967000007629395 0 -1
110.0999984741211 77 -10.571000099182129 0 -1
118.9000015258789 92.0999984741211 -14.87399959564209 0 -1
122.69999694824219 77 -11.557000160217285 0 -1
115.19999694824219 78.4000015258789 -13.82800006866455 0 -1
122.30000305175781 93.4000015258789 -14.479999542236328 0 -1
120.19999694824219 79 -11.769000053405762 0 -1
116 86.5999984741211 -14.972000122070312 0 -1
111.30000305175781 76 -11.987000465393066 0 -1
118.30000305175781 90.80000305175781 -14.529000282287598 0 -1
122.80000305175781 77.4000015258789 -11.154000282287598 0 -1
118.80000305175781 90.9000015258789 -14.581000328063965 0 -1
112 74.5 -11.387999534606934 0 -1
120.80000305175781 85.9000015258789 -13.706000328063965 0 -1
123 82.9000015258789 -13.248000144958496 0 -1
116.5999984741211 76.5999984741211 -13.751999855041504 0 -1
121.9000015258789 89.69999694824219 -10.043000221252441 1 -1
112.9000015258789 81.5999984741211 -12.984999656677246 0 -1
118.0999984741211 83.69999694824219 -13.67300033569336 0 -1
115 77.9000015258789 -13.72700023651123 0 -1
116.5999984741211 92.0999984741211 -13.937000274658203 0 -1
113.5 76.30000305175781 -13.868000030517578 0 -1
115.69999694824219 87.0999984741211 -15.387999534606934 0 -1
115.9000015258789 85.9000015258789 -14.343000411987305 0 -1
116.0999984741211 79.30000305175781 -11.27400016784668 0 -1
118.5 85.69999694824219 -13.739999771118164 0 -1
119.9000015258789 89 -14.12399959564209 0 -1
119.5999984741211 82.5 -13.364999771118164 0 -1
114 83.19999694824219 -14.897000312805176 0 -1
114.30000305175781 88.80000305175781 -16.841999053955078 0 -1
120 91 -15.326000213623047 0 -1
120.5999984741211 91.19999694824219 -15.92300033569336 0 -1
115.0999984741211 82.30000305175781 -14.576000213623047 0 -1
122.5 82.5999984741211 -13.531000137329102 0 -1
121.5999984741211 94.19999694824219 -13.390999794006348 0 -1
121.19999694824219 77.80000305175781 -12.468000411987305 0 -1
111.30000305175781 75.80000305175781 -11.840999603271484 0 -1
113.19999694824219 86.30000305175781 -16.714000701904297 0 -1
116 86.69999694824219 -14.993000030517578 0 -1
118.30000305175781 77.5 -11.895999908447266 0 -1
121.80000305175781 83.9000015258789 -13.956999778747559 0 -1
118.80000305175781 91 -14.625 0 -1
120.30000305175781 85.30000305175781 -13.914999961853027 0 -1
120.5 87.9000015258789 -14.074999809265137 0 -1
113.9000015258789 84.30000305175781 -14.913999557495117 0 -1
117.0999984741211 89.9000015258789 -15.331999778747559 0 -1
117.69999694824219 79.69999694824219 -11.934000015258789 0 -1
118 90.0999984741211 -14.5649995803833 0 -1
120.0999984741211 91.5999984741211 -15.652999877929688 0 -1
115.30000305175781 81.5999984741211 -13.928000450134277 0 -1
112.0999984741211 80.80000305175781 -12.776000022888184 0 -1
119 83.0999984741211 -13.602999687194824 0 -1
121.69999694824219 79.69999694824219 -12.571000099182129 0 -1
110.80000305175781 76.0999984741211 -10.958000183105469 0 -1
113.69999694824219 86.4000015258789 -16.759000778198242 0 -1
115.5 85.19999694824219 -14.986000061035156 0 -1
116.19999694824219 79.69999694824219 -11.626999855041504 0 -1
111.9000015258789 77.9000015258789 -12.916999816894531 0 -1
122.0999984741211 83.5999984741211 -13.418999671936035 0 -1
111.69999694824219 76 -14.204000473022461 0 -1
119.80000305175781 93.0999984741211 -14.61400032043457 0 -1
116.5 88.69999694824219 -14.944999694824219 0 -1
122 84.80000305175781 -13.984999656677246 0 -1
122.19999694824219 94.5999984741211 -14.109999656677246 0 -1
113.4000015258789 83.69999694824219 -14.25 0 -1
121 86.30000305175781 -13.472999572753906 0 -1
121.30000305175781 83 -13.944999694824219 0 -1
115.80000305175781 82.0999984741211 -13.347000122070312 0 -1
121.19999694824219 77.69999694824219 -11.58899974822998 0 -1
114.4000015258789 85.9000015258789 -14.928999900817871 0 -1
121.5999984741211 94.0999984741211 -14.927000045776367 0 -1
110.4000015258789 79.30000305175781 -13.076000213623047 0 -1
122.30000305175781 76.5999984741211 -11.16100025177002 0 -1
122.4000015258789 89.0999984741211 -10.196000099182129 1 -1
121.0999984741211 93.30000305175781 -14.678000450134277 0 -1
118.5999984741211 80.30000305175781 -12.883000373840332 0 -1
114.5999984741211 75.19999694824219 -13.800000190734863 0 -1
121.4000015258789 83.4000015258789 -14.236000061035156 0 -1
115.4000015258789 91.69999694824219 -14.718000411987305 0 -1
122.0999984741211 83.30000305175781 -13.59000015258789 0 -1
119.19999694824219 85.69999694824219 -13.645000457763672 0 -1
115.5999984741211 89.9000015258789 -15.993000030517578 0 -1
118.69999694824219 80.9000015258789 -13.329000473022461 0 -1
118 90 -14.579000473022461 0 -1
119.80000305175781 79.80000305175781 -13.38700008392334 0 -1
114.80000305175781 79.4000015258789 -11.78499984741211 0 -1
116.69999694824219 94.9000015258789 -11.859999656677246 0 -1
118.19999694824219 79.30000305175781 -12.157999992370605 0 -1
117 89 -15.612000465393066 0 -1
122.80000305175781 77.19999694824219 -11.520000457763672 0 -1
114 83.4000015258789 -14.868000030517578 0 -1
122.5 82.30000305175781 -13.979999542236328 0 -1
120.9000015258789 87 -13.454999923706055 0 -1
121.69999694824219 95 -12.371999740600586 0 -1
113.69999694824219 86.5 -16.634000778198242 0 -1
117.80000305175781 92.69999694824219 -13.927000045776367 0 -1
121.5999984741211 76.69999694824219 -11.317999839782715 0 -1
115.5 85 -14.279999732971191 0 -1
116.69999694824219 81.5999984741211 -13.960000038146973 0 -1
121.5 89.80000305175781 -9.649999618530273 1 -1
113 80.69999694824219 -13.635000228881836 0 -1
116.5 88.5999984741211 -14.991000175476074 0 -1
111.5999984741211 83 -15.184000015258789 0 -1
120.30000305175781 85.5 -13.892999649047852 0 -1
119.80000305175781 93 -14.968000411987305 0 -1
114.0999984741211 88.80000305175781 -16.8439998626709 0 -1
115 78 -13.680999755859375 0 -1
118.69999694824219 81 -13.350000381469727 0 -1
118.9000015258789 92 -14.32800006866455 0 -1
119.80000305175781 79.69999694824219 -13.378000259399414 0 -1
120.19999694824219 94.30000305175781 -12.678000450134277 0 -1
121.0999984741211 93.19999694824219 -14.769000053405762 0 -1
119.69999694824219 79.30000305175781 -13.32800006866455 0 -1
119.4000015258789 76 -11.633999824523926 0 -1
113.4000015258789 83.5999984741211 -14.248000144958496 0 -1
119.5 88 -14.595999717712402 0 -1
122.19999694824219 94.80000305175781 -14.116999626159668 0 -1
116.5999984741211 76.69999694824219 -12.289999961853027 0 -1
110.5 78.4000015258789 -10.347999572753906 0 -1
115.9000015258789 86 -14.854000091552734 0 -1
111.4000015258789 78.80000305175781 -11.982000350952148 0 -1
117.69999694824219 79 -11.869999885559082 0 -1
115.4000015258789 76.4000015258789 -14.329000473022461 0 -1
120.80000305175781 85.80000305175781 -13.72700023651123 0 -1
122.69999694824219 77.5999984741211 -11.65999984741211 0 -1
122.30000305175781 94 -13.22599983215332 0 -1
122.5 82.19999694824219 -13.937999725341797 0 -1
113.80000305175781 82.5999984741211 -14.678000450134277 0 -1
110.19999694824219 77.5999984741211 -10.088000297546387 0 -1
117.9000015258789 89.4000015258789 -14.885000228881836 0 -1
118.69999694824219 94.30000305175781 -12.925999641418457 0 -1
119.5999984741211 82.5999984741211 -13.300000190734863 0 -1
118.80000305175781 81.80000305175781 -13.248000144958496 0 -1
118.0999984741211 83.80000305175781 -13.60200023651123 0 -1
120.69999694824219 81 -13.637999534606934 0 -1
121.9000015258789 89.5 -10.027000427246094 1 -1
120 91.0999984741211 -15.281000137329102 0 -1
120.4000015258789 86.69999694824219 -13.743000030517578 0 -1
121.19999694824219 93.0999984741211 -15.37399959564209 0 -1
115.69999694824219 87.19999694824219 -15.329999923706055 0 -1
114.69999694824219 78.69999694824219 -13.503999710083008 0 -1
122 84.0999984741211 -13.618000030517578 0 -1
115.5 85.0999984741211 -15.236000061035156 0 -1
122.5999984741211 83.9000015258789 -13.82699966430664 0 -1
121.5 89.9000015258789 -12.814000129699707 1 -1
111.5999984741211 82.9000015258789 -15.315999984741211 0 -1
119.0999984741211 89.4000015258789 -14.333000183105469 0 -1
120.0999984741211 91.4000015258789 -15.416000366210938 0 -1
122.19999694824219 79.4000015258789 -12.751999855041504 0 -1
122.4000015258789 89.19999694824219 -9.96500015258789 1 -1
113.80000305175781 82.5 -14.598999977111816 0 -1
114.19999694824219 87.69999694824219 -16.10300064086914 0 -1
111.30000305175781 75.9000015258789 -11.692999839782715 0 -1
119.9000015258789 88.9000015258789 -14.243000030517578 0 -1
113.5 76.69999694824219 -14.241999626159668 0 -1
122.9000015258789 83 -13.154000282287598 0 -1
114.80000305175781 79.5999984741211 -12.565999984741211 0 -1
115.80000305175781 82.80000305175781 -14.435999870300293 0 -1
111.0999984741211 82.5999984741211 -15.218999862670898 0 -1
114.30000305175781 88.69999694824219 -16.788999557495117 0 -1
118.4000015258789 84.19999694824219 -14.317000389099121 0 -1
111.4000015258789 78.9000015258789 -11.96500015258789 0 -1
110.9000015258789 77.19999694824219 -10.850000381469727 0 -1
120.5 88 -14.27299976348877 0 -1
121.69999694824219 79.5999984741211 -12.5600004196167 0 -1
119 83 -13.548999786376953 0 -1
117.5 88.5 -14.991999626159668 0 -1
121.5999984741211 93.80000305175781 -14.083999633789062 0 -1
112.9000015258789 81.5 -13.722999572753906 0 -1
110.5 78.5 -10.925999641418457 0 -1
118.80000305175781 81.9000015258789 -13.239999771118164 0 -1
114.9000015258789 76.5999984741211 -13.98799991607666 0 -1
117.4000015258789 82.5 -14.071000099182129 0 -1
115.9000015258789 85 -14.243000030517578 0 -1
121.80000305175781 83.5 -13.913000106811523 0 -1
122.9000015258789 83.4000015258789 -13.321000099182129 0 -1
116.5999984741211 91.19999694824219 -14.996000289916992 0 -1
121.4000015258789 83 -13.946999549865723 0 -1
122 84.19999694824219 -13.956999778747559 0 -1
120.19999694824219 78.9000015258789 -11.748000144958496 0 -1
114.69999694824219 78.5999984741211 -13.92199993133545 0 -1
113.30000305175781 83 -13.975000381469727 0 -1
116.19999694824219 79.0999984741211 -11.814000129699707 0 -1
123 82.5 -13.03499984741211 0 -1
118.9000015258789 80.69999694824219 -13.22700023651123 0 -1
116.30000305175781 75.5 -13.64900016784668 0 -1
117.0999984741211 89.30000305175781 -14.871999740600586 0 -1
112.0999984741211 83 -15.157999992370605 0 -1
114.30000305175781 88.5999984741211 -16.81999969482422 0 -1
112.80000305175781 83.4000015258789 -14.03499984741211 0 -1
120.0999984741211 91.5 -15.598999977111816 0 -1
111.9000015258789 78.30000305175781 -12.994000434875488 0 -1
120.69999694824219 80.9000015258789 -13.526000022888184 0 -1
115.30000305175781 81.5 -12.76200008392334 0 -1
122.0999984741211 83.19999694824219 -13.73799991607666 0 -1
121 86.19999694824219 -13.4399995803833 0 -1
114.4000015258789 85.80000305175781 -14.909000396728516 0 -1
118.5 85.30000305175781 -13.842000007629395 0 -1
120.19999694824219 79.30000305175781 -13.003000259399414 0 -1
114.80000305175781 79.5 -12.918999671936035 0 -1
122.30000305175781 76.69999694824219 -11.111000061035156 0 -1
122.19999694824219 79.5999984741211 -12.751999855041504 0 -1
111.5 82.30000305175781 -14.937999725341797 0 -1
118.4000015258789 84.0999984741211 -14.418000221252441 0 -1
110.9000015258789 77.30000305175781 -10.388999938964844 0 -1
119.19999694824219 85.5999984741211 -13.708999633789062 0 -1
