VERSION .7
FIELDS x y z label object
SIZE 4 4 4 4 4
TYPE F F F I I
COUNT 1 1 1 1 1
WIDTH 866
HEIGHT 1
POINTS 866
VIEWPOINT 0 0 0 1 0 0 0
DATA ascii
117.4000015258789 80.4000015258789 -14.744000434875488 0 -1
112.80000305175781 92.69999694824219 -14.404000282287598 0 -1
122.19999694824219 87.5 -14.6850004196167 0 -1
115.5999984741211 77.69999694824219 -12.954000473022461 0 -1
117.69999694824219 87.5999984741211 -15.29699993133545 0 -1
112.69999694824219 81.69999694824219 -14.871000289916992 0 -1
115.80000305175781 81.5 -12.887999534606934 0 -1
110.69999694824219 80.19999694824219 -12.956999778747559 0 -1
111.30000305175781 82.4000015258789 -14.619000434875488 0 -1
120.5999984741211 81.5 -14.479999542236328 0 -1
120.19999694824219 94.69999694824219 -12.977999687194824 0 -1
115.69999694824219 90 -15.678000450134277 0 -1
121.4000015258789 83.69999694824219 -14.303999900817871 0 -1
110.5 80 -12.9350004196167 0 -1
117.5999984741211 90.9000015258789 -16.475000381469727 0 -1
122.5999984741211 85 -15.380999565124512 0 -1
118.80000305175781 77.69999694824219 9.039999961853027 1 -1
119.0999984741211 83.9000015258789 6.445000171661377 1 -1
114.5999984741211 86 -14.881999969482422 0 -1
111.0999984741211 91.5999984741211 -14.654000282287598 0 -1
116.9000015258789 79.30000305175781 -13.182000160217285 0 -1
122.69999694824219 88.4000015258789 -14.907999992370605 0 -1
114.80000305175781 75.69999694824219 -13.656000137329102 0 -1
117.30000305175781 85.30000305175781 -14.772000312805176 0 -1
117.19999694824219 87 -14.76200008392334 0 -1
119.5 77 -12.857999801635742 0 -1
115.0999984741211 93.19999694824219 -14.711999893188477 0 -1
123 83.0999984741211 -14.541999816894531 0 -1
117 76.5 -13.72599983215332 0 -1
113.4000015258789 77 -14.611000061035156 0 -1
116.80000305175781 88.80000305175781 -14.994999885559082 0 -1
118.5999984741211 80 8.75 1 -1
110.4000015258789 76.4000015258789 -12.47700023651123 0 -1
113.5 91.69999694824219 -15.347000122070312 0 -1
111.5999984741211 81.9000015258789 -14.819999694824219 0 -1
119.30000305175781 78.9000015258789 12.229000091552734 1 -1
115.80000305175781 94.80000305175781 -13.668999671936035 0 -1
113.30000305175781 91.80000305175781 -15.145000457763672 0 -1
121.5 87 -15.151000022888184 0 -1
110.19999694824219 88.69999694824219 -16.878999710083008 0 -1
117.80000305175781 80.0999984741211 -13.4399995803833 0 -1
110.0999984741211 85 -15.496999740600586 0 -1
116.80000305175781 83.30000305175781 8.38599967956543 1 -1
110.9000015258789 77.9000015258789 -13.946000099182129 0 -1
113.19999694824219 94.5999984741211 -12.758000373840332 0 -1
116.30000305175781 91.69999694824219 -14.755000114440918 0 -1
116.80000305175781 88.5999984741211 -15.390000343322754 0 -1
113.9000015258789 86.0999984741211 -14.87399959564209 0 -1
113.80000305175781 85 -15.774999618530273 0 -1
111.30000305175781 82.19999694824219 -14.765999794006348 0 -1
117.5999984741211 91 -16.39299964904785 0 -1
112 86 -15.857000350952148 0 -1
113.0999984741211 84.5999984741211 -14.987000465393066 0 -1
114.19999694824219 89.5 -14.75100040435791 0 -1
122.80000305175781 81.30000305175781 -14.107000350952148 0 -1
114.30000305175781 75.19999694824219 -14.848999977111816 0 -1
122.9000015258789 87.80000305175781 -15.687000274658203 0 -1
118.5 86.80000305175781 -14.425999641418457 0 -1
110.69999694824219 80.30000305175781 -12.984000205993652 0 -1
110.9000015258789 93.30000305175781 -13.934000015258789 0 -1
119.9000015258789 83.4000015258789 -14.211999893188477 0 -1
122.80000305175781 94.5999984741211 -13.913999557495117 0 -1
119.80000305175781 84.5999984741211 -13.993000030517578 0 -1
115.69999694824219 90.0999984741211 -15.687000274658203 0 -1
115.4000015258789 94.80000305175781 -12.895000457763672 0 -1
113.4000015258789 76.5999984741211 -14.267000198364258 0 -1
118.5 84.9000015258789 7.031000137329102 1 -1
118.69999694824219 86 -13.84000015258789 0 -1
120.30000305175781 80.30000305175781 -14.043999671936035 0 -1
112.19999694824219 87.69999694824219 -16.961999893188477 0 -1
112.30000305175781 93 -14.25100040435791 0 -1
114.0999984741211 90.30000305175781 -15.772000312805176 0 -1
122.0999984741211 83.5 -13.890999794006348 0 -1
118.19999694824219 84.80000305175781 6.895999908447266 1 -1
119 76.0999984741211 -12.5 0 -1
115.5 87.19999694824219 -14.871999740600586 0 -1
111.5 93.5999984741211 -13.9350004196167 0 -1
112.4000015258789 77.80000305175781 -14.593999862670898 0 -1
120.9000015258789 87 -15.368000030517578 0 -1
112.30000305175781 77.5999984741211 -14.781000137329102 0 -1
111.0999984741211 91.4000015258789 -14.654000282287598 0 -1
117.9000015258789 92.9000015258789 -14.937999725341797 0 -1
122.19999694824219 87.30000305175781 -14.6850004196167 0 -1
119.19999694824219 84.0999984741211 11.340999603271484 1 -1
118.80000305175781 77.80000305175781 9.170000076293945 1 -1
110.30000305175781 80 -12.78600025177002 0 -1
112.5 78.4000015258789 -14.451000213623047 0 -1
111.80000305175781 94.0999984741211 -12.881999969482422 0 -1
112.9000015258789 89.30000305175781 -16.312999725341797 0 -1
122.4000015258789 83.19999694824219 -13.868000030517578 0 -1
114.9000015258789 81.0999984741211 -13.668000221252441 0 -1
116.9000015258789 94.5999984741211 -12.829999923706055 0 -1
114.5999984741211 84 -14.789999961853027 0 -1
118.4000015258789 91 -16.111000061035156 0 -1
114 80 -14.397000312805176 0 -1
120.19999694824219 79.30000305175781 11.9350004196167 1 -1
121.30000305175781 80.69999694824219 -14.536999702453613 0 -1
118.5 86.9000015258789 -14.432000160217285 0 -1
118.0999984741211 80.80000305175781 -13.355999946594238 0 -1
115.9000015258789 76.9000015258789 -12.378000259399414 0 -1
118.5999984741211 79.69999694824219 8.920000076293945 1 -1
114.4000015258789 89.80000305175781 -15.465999603271484 0 -1
113.19999694824219 78.4000015258789 -14.347000122070312 0 -1
110 86.80000305175781 -16.37299919128418 0 -1
111.69999694824219 86.9000015258789 -16.820999145507812 0 -1
117.30000305175781 83.4000015258789 8.15999984741211 1 -1
113.69999694824219 88.80000305175781 -15.628000259399414 0 -1
115.0999984741211 93.4000015258789 -14.644000053405762 0 -1
115.4000015258789 94.9000015258789 -12.918999671936035 0 -1
121.30000305175781 92 -14.862000465393066 0 -1
112 85.9000015258789 -15.895999908447266 0 -1
119.5999984741211 82.19999694824219 -14.321999549865723 0 -1
113.30000305175781 92.5 -14.888999938964844 0 -1
118.9000015258789 93.19999694824219 -14.946999549865723 0 -1
112.19999694824219 87.80000305175781 -16.990999221801758 0 -1
116.19999694824219 86.30000305175781 -15.093999862670898 0 -1
115.9000015258789 94.0999984741211 -13.958999633789062 0 -1
110.19999694824219 88.5 -16.878999710083008 0 -1
115.4000015258789 81.5 -13.343999862670898 0 -1
113.80000305175781 85.5 -15.947999954223633 0 -1
114.30000305175781 74.80000305175781 -14.394000053405762 0 -1
117.80000305175781 79.9000015258789 -13.4399995803833 0 -1
110.5 80.19999694824219 -12.970000267028809 0 -1
111.0999984741211 91.5 -14.461999893188477 0 -1
110.5999984741211 86.4000015258789 -16.46500015258789 0 -1
122.5999984741211 85.19999694824219 -14.928000450134277 0 -1
117.5 79.80000305175781 -13.324999809265137 0 -1
119.69999694824219 87.0999984741211 -14.154000282287598 0 -1
115.30000305175781 94.0999984741211 -13.934000015258789 0 -1
112.0999984741211 82.9000015258789 -14.82699966430664 0 -1
111.0999984741211 80.19999694824219 -13.781999588012695 0 -1
112.5 78.5 -14.406000137329102 0 -1
114.30000305175781 92.19999694824219 -15.369999885559082 0 -1
119.5 76.80000305175781 -12.807999610900879 0 -1
113 91.9000015258789 -15.116000175476074 0 -1
121 83.69999694824219 -14.045000076293945 0 -1
117.9000015258789 92.80000305175781 -14.994999885559082 0 -1
111.4000015258789 86.5999984741211 -16.783000946044922 0 -1
117.0999984741211 81.5999984741211 -13.326000213623047 0 -1
117.5 94.80000305175781 -12.767000198364258 0 -1
110.80000305175781 88.80000305175781 -16.961999893188477 0 -1
115.69999694824219 89.9000015258789 -15.39900016784668 0 -1
111.5 93.30000305175781 -14.057999610900879 0 -1
110.4000015258789 76.19999694824219 -12.47700023651123 0 -1
121 86 6.5929999351501465 1 -1
112.4000015258789 77.69999694824219 -14.557000160217285 0 -1
121.19999694824219 94.80000305175781 -13.579999923706055 0 -1
110.69999694824219 91.5999984741211 -14.85200023651123 0 -1
116 84.5 -14.597999572753906 0 -1
121.9000015258789 84.80000305175781 -15.345000267028809 0 -1
120.0999984741211 83.0999984741211 -14.345999717712402 0 -1
119.5999984741211 82.4000015258789 -14.321999549865723 0 -1
121.4000015258789 83.5999984741211 -14.29699993133545 0 -1
121 83.19999694824219 -14.196000099182129 0 -1
117.5999984741211 90.80000305175781 -16.39299964904785 0 -1
114.4000015258789 89.9000015258789 -15.472999572753906 0 -1
116.9000015258789 94.30000305175781 -13.87600040435791 0 -1
118.4000015258789 90.9000015258789 -16.093000411987305 0 -1
118.9000015258789 93.30000305175781 -14.909000396728516 0 -1
112.30000305175781 77.80000305175781 -14.659000396728516 0 -1
122.69999694824219 88.5 -14.902999877929688 0 -1
116.0999984741211 89.9000015258789 -14.982999801635742 0 -1
119 93.5999984741211 -14.904000282287598 0 -1
114.5 88.9000015258789 -14.958999633789062 0 -1
123 83 -14.914999961853027 0 -1
111.9000015258789 82.0999984741211 -14.739999771118164 0 -1
119.0999984741211 83.80000305175781 -14.289999961853027 0 -1
118.80000305175781 77.5999984741211 7.6570000648498535 1 -1
113.9000015258789 86.4000015258789 -14.996000289916992 0 -1
113.5 91.80000305175781 -15.368000030517578 0 -1
122.4000015258789 83.4000015258789 -13.868000030517578 0 -1
114.9000015258789 80.9000015258789 -13.307000160217285 0 -1
117.30000305175781 85.19999694824219 -14.678000450134277 0 -1
114.19999694824219 89.19999694824219 -14.918000221252441 0 -1
113 91.80000305175781 -15.118000030517578 0 -1
112.80000305175781 93.5999984741211 -13.614999771118164 0 -1
116.30000305175781 91.80000305175781 -14.701000213623047 0 -1
117.0999984741211 81.69999694824219 -13.531000137329102 0 -1
120.5 87.30000305175781 -14.197999954223633 0 -1
118.30000305175781 87.5999984741211 -15.177000045776367 0 -1
111.30000305175781 82.30000305175781 -14.881999969482422 0 -1
122.80000305175781 81.19999694824219 -14.281000137329102 0 -1
117.9000015258789 77.5 9.406000137329102 1 -1
114.0999984741211 77.0999984741211 -14.45300006866455 0 -1
121.69999694824219 93.9000015258789 -14.270000457763672 0 -1
117.19999694824219 86.5999984741211 -14.836000442504883 0 -1
110.0999984741211 86 -16.31399917602539 0 -1
116.80000305175781 88.69999694824219 -15.383999824523926 0 -1
111.5 93.19999694824219 -14.097000122070312 0 -1
115 83.9000015258789 -14.696999549865723 0 -1
115.30000305175781 94.19999694824219 -13.869999885559082 0 -1
115.5999984741211 91 -14.970000267028809 0 -1
115.80000305175781 78.30000305175781 -14.166999816894531 0 -1
110.9000015258789 93.19999694824219 -13.98900032043457 0 -1
121.19999694824219 94.5999984741211 -13.89900016784668 0 -1
121.69999694824219 78.0999984741211 -13.187000274658203 0 -1
112.19999694824219 87.5999984741211 -16.91900062561035 0 -1
121.30000305175781 80 -14.732999801635742 0 -1
118.30000305175781 88 -15.135000228881836 0 -1
120.5999984741211 81.5999984741211 -14.46500015258789 0 -1
112.4000015258789 94.80000305175781 -11.730999946594238 0 -1
113.4000015258789 92 -15.244000434875488 0 -1
122.30000305175781 78.5 -13.25 0 -1
118.69999694824219 85.9000015258789 -13.857000350952148 0 -1
113.9000015258789 86.5 -15.819999694824219 0 -1
121.69999694824219 93.5 -14.571000099182129 0 -1
113.0999984741211 83.4000015258789 -14.74899959564209 0 -1
122.80000305175781 94.5 -11.612000465393066 0 -1
117 94 -13.944999694824219 0 -1
117.9000015258789 93 -14.937000274658203 0 -1
119.9000015258789 83 -14.359999656677246 0 -1
111.9000015258789 82 -14.871000289916992 0 -1
116.0999984741211 90.0999984741211 -14.864999771118164 0 -1
119 76.19999694824219 -12.46500015258789 0 -1
115.5 87.0999984741211 -14.836999893188477 0 -1
119.19999694824219 84 6.047999858856201 1 -1
110.0999984741211 85.9000015258789 -16.275999069213867 0 -1
110.30000305175781 80.0999984741211 -12.803000450134277 0 -1
118.5 86.69999694824219 -14.166999816894531 0 -1
111.80000305175781 94 -12.744999885559082 0 -1
116 84.69999694824219 -14.826000213623047 0 -1
116.19999694824219 86.5 -15.095000267028809 0 -1
114.69999694824219 78.19999694824219 -13.355999946594238 0 -1
114.0999984741211 90.4000015258789 -15.845000267028809 0 -1
112.69999694824219 78 -14.644000053405762 0 -1
119.4000015258789 86.30000305175781 -13.894000053405762 0 -1
121.4000015258789 83.30000305175781 -14.270000457763672 0 -1
120.19999694824219 79.19999694824219 11.562000274658203 1 -1
111.0999984741211 91.30000305175781 -14.845999717712402 0 -1
115.9000015258789 92.19999694824219 -14.550999641418457 0 -1
122.19999694824219 87.4000015258789 -15.288999557495117 0 -1
110 86.19999694824219 -16.292999267578125 0 -1
116.5999984741211 82.0999984741211 8.107000350952148 1 -1
121.5 86.0999984741211 -14.687999725341797 0 -1
115.5999984741211 77.5999984741211 -12.918000221252441 0 -1
116.9000015258789 78.9000015258789 -13.472999572753906 0 -1
111.0999984741211 80 -12.979000091552734 0 -1
114.5999984741211 84.0999984741211 -14.82699966430664 0 -1
114 80.0999984741211 -14.472000122070312 0 -1
118.4000015258789 77.9000015258789 9.156000137329102 1 -1
112.4000015258789 77.4000015258789 -14.574000358581543 0 -1
115.9000015258789 76.80000305175781 -12.62600040435791 0 -1
120.9000015258789 86.0999984741211 6.499000072479248 1 -1
110.5999984741211 86.0999984741211 -15.942000389099121 0 -1
122.19999694824219 87.69999694824219 -15.244999885559082 0 -1
121.19999694824219 94.69999694824219 -13.685999870300293 0 -1
118.19999694824219 84.69999694824219 12.166000366210938 1 -1
119.30000305175781 79 12.305000305175781 1 -1
110.9000015258789 78.30000305175781 -13.652999877929688 0 -1
111.5999984741211 94.80000305175781 -11.666999816894531 0 -1
113.80000305175781 85.4000015258789 -15.892000198364258 0 -1
118 78.80000305175781 10.416000366210938 1 -1
112.0999984741211 82.69999694824219 -14.73799991607666 0 -1
117.4000015258789 80.80000305175781 -13.222999572753906 0 -1
114.19999694824219 89.0999984741211 -15.369000434875488 0 -1
115.5999984741211 90.9000015258789 -14.975000381469727 0 -1
118.0999984741211 80.4000015258789 -13.184000015258789 0 -1
110.69999694824219 79.9000015258789 -12.96399974822998 0 -1
111.30000305175781 82.0999984741211 -14.954000473022461 0 -1
121.69999694824219 78.19999694824219 -13.470999717712402 0 -1
117.69999694824219 88 -15.355999946594238 0 -1
111.69999694824219 87 -16.76300048828125 0 -1
116.19999694824219 86.4000015258789 -15.095000267028809 0 -1
115.19999694824219 79.80000305175781 -12.918000221252441 0 -1
115.4000015258789 81.5999984741211 -13.62399959564209 0 -1
119.5 76.9000015258789 -13.086000442504883 0 -1
116.0999984741211 90 -14.994999885559082 0 -1
117 76.5999984741211 -13.744000434875488 0 -1
121.9000015258789 84.19999694824219 -14.237000465393066 0 -1
111.5 93.4000015258789 -13.996999740600586 0 -1
118.69999694824219 85.5999984741211 -13.890999794006348 0 -1
112.0999984741211 82.80000305175781 -14.821999549865723 0 -1
111.0999984741211 80.0999984741211 -12.970999717712402 0 -1
114.69999694824219 78.0999984741211 -13.574000358581543 0 -1
119 93.19999694824219 -14.909000396728516 0 -1
115.80000305175781 78.0999984741211 -12.831999778747559 0 -1
113.69999694824219 88.69999694824219 -14.934000015258789 0 -1
121.19999694824219 77.19999694824219 -12.350000381469727 0 -1
110.30000305175781 79.9000015258789 -12.803000450134277 0 -1
118.9000015258789 76 -12.5 0 -1
119.69999694824219 87.19999694824219 -14.187999725341797 0 -1
110.80000305175781 88.9000015258789 -16.951000213623047 0 -1
121 85.9000015258789 6.686999797821045 1 -1
114.0999984741211 77.30000305175781 -14.920000076293945 0 -1
112.30000305175781 93.0999984741211 -14.298999786376953 0 -1
120.0999984741211 83 -14.336000442504883 0 -1
122.69999694824219 88.5999984741211 -14.907999992370605 0 -1
111.5999984741211 81.5 -14.960000038146973 0 -1
119.80000305175781 84.69999694824219 -13.996999740600586 0 -1
117.30000305175781 85.0999984741211 -14.480999946594238 0 -1
114 79.9000015258789 -13.861000061035156 0 -1
119.5 77.19999694824219 -12.946999549865723 0 -1
113.4000015258789 76.69999694824219 -14.604999542236328 0 -1
121 83.30000305175781 -14.220999717712402 0 -1
122.80000305175781 81.5999984741211 -14.694999694824219 0 -1
116.80000305175781 89 -14.994999885559082 0 -1
118.4000015258789 78 8.614999771118164 1 -1
113.5 91.9000015258789 -15.347000122070312 0 -1
121.5999984741211 81.19999694824219 -14.71500015258789 0 -1
112.30000305175781 77.69999694824219 -14.626999855041504 0 -1
122 86.5 -14.869000434875488 0 -1
111.5999984741211 94.9000015258789 -11.527000427246094 0 -1
116.30000305175781 91.9000015258789 -14.62399959564209 0 -1
113.9000015258789 86.30000305175781 -15.880000114440918 0 -1
119.0999984741211 83.69999694824219 -14.406000137329102 0 -1
110.9000015258789 93.5999984741211 -13.805000305175781 0 -1
122.30000305175781 78.19999694824219 -13.11400032043457 0 -1
111.80000305175781 92.4000015258789 -14.552000045776367 0 -1
114.19999694824219 89.30000305175781 -14.769000053405762 0 -1
113.0999984741211 83.19999694824219 -14.819000244140625 0 -1
117 94.19999694824219 -13.944999694824219 0 -1
114.5 89 -14.748000144958496 0 -1
122.9000015258789 87.5999984741211 -15.64799976348877 0 -1
112.69999694824219 77.9000015258789 -14.932000160217285 0 -1
115.9000015258789 77 -12.984999656677246 0 -1
112.9000015258789 89.19999694824219 -15.866000175476074 0 -1
114.9000015258789 81 -13.656999588012695 0 -1
114.0999984741211 90.5999984741211 -15.78600025177002 0 -1
112.80000305175781 93.5 -13.725000381469727 0 -1
121.19999694824219 77.30000305175781 -12.293000221252441 0 -1
116.5999984741211 82.80000305175781 8.920000076293945 1 -1
118 80.9000015258789 -13.355999946594238 0 -1
117.19999694824219 86.69999694824219 -14.829000473022461 0 -1
118.80000305175781 77.5 8.565999984741211 1 -1
116.5999984741211 82.69999694824219 8.821000099182129 1 -1
112 85.80000305175781 -15.762999534606934 0 -1
116.9000015258789 79.0999984741211 -12.880999565124512 0 -1
115.19999694824219 77.9000015258789 -13.359999656677246 0 -1
113.19999694824219 78.5 -14.38599967956543 0 -1
115.0999984741211 91 -15.498000144958496 0 -1
111.4000015258789 87 -16.783000946044922 0 -1
114.80000305175781 75.5999984741211 -13.758000373840332 0 -1
122 86.4000015258789 -14.857000350952148 0 -1
114.30000305175781 74.9000015258789 -14.680999755859375 0 -1
117.80000305175781 79.80000305175781 -13.652000427246094 0 -1
110.5 80.30000305175781 -12.984000205993652 0 -1
119.9000015258789 83.0999984741211 -14.432000160217285 0 -1
110.69999694824219 91.19999694824219 -15.427000045776367 0 -1
115.0999984741211 75.5999984741211 -13.5600004196167 0 -1
121.19999694824219 94.5 -13.793000221252441 0 -1
116.9000015258789 94.4000015258789 -13.817999839782715 0 -1
114.30000305175781 92.30000305175781 -15.324999809265137 0 -1
115.9000015258789 92.4000015258789 -14.473999977111816 0 -1
121.4000015258789 83.19999694824219 -14.866000175476074 0 -1
118 81 -14.767000198364258 0 -1
115.5 87 -14.824000358581543 0 -1
114.4000015258789 90 -15.505000114440918 0 -1
115.69999694824219 88.19999694824219 -14.958000183105469 0 -1
120.69999694824219 85.69999694824219 -14.812999725341797 0 -1
119.19999694824219 84.4000015258789 11.364999771118164 1 -1
114.5999984741211 84.19999694824219 -14.845999717712402 0 -1
115 84 -14.725000381469727 0 -1
118.4000015258789 90.80000305175781 -16.111000061035156 0 -1
121.5999984741211 81.4000015258789 -14.78600025177002 0 -1
118.19999694824219 84.5999984741211 12.130000114440918 1 -1
119.69999694824219 87.4000015258789 -14.222000122070312 0 -1
113.80000305175781 85.30000305175781 -15.947999954223633 0 -1
114.30000305175781 75 -14.765000343322754 0 -1
121.19999694824219 77.0999984741211 -12.336999893188477 0 -1
110 86.0999984741211 -16.31399917602539 0 -1
110.4000015258789 76.0999984741211 -12.418000221252441 0 -1
110.69999694824219 91.30000305175781 -14.883999824523926 0 -1
114.69999694824219 85.69999694824219 -14.958999633789062 0 -1
116.19999694824219 77.4000015258789 -13.416999816894531 0 -1
116 79.19999694824219 -13.413000106811523 0 -1
122.19999694824219 87.80000305175781 -15.237000465393066 0 -1
118.5999984741211 91.5999984741211 -15.979000091552734 0 -1
118.0999984741211 80.5 -14.581000328063965 0 -1
120.30000305175781 80.19999694824219 -13.904999732971191 0 -1
115.0999984741211 90.9000015258789 -15.470999717712402 0 -1
118.30000305175781 87.9000015258789 -15.097999572753906 0 -1
110.9000015258789 78.19999694824219 -13.718999862670898 0 -1
116.5 93.4000015258789 -14.949999809265137 0 -1
111.69999694824219 87.0999984741211 -16.820999145507812 0 -1
113 91.69999694824219 -15.293999671936035 0 -1
122.0999984741211 83.4000015258789 -14.02299976348877 0 -1
117.5 95 -11.911999702453613 0 -1
117.0999984741211 81.80000305175781 -13.47599983215332 0 -1
110.80000305175781 89 -16.864999771118164 0 -1
114.80000305175781 88.19999694824219 -14.729000091552734 0 -1
119.5999984741211 82 -14.380000114440918 0 -1
112.9000015258789 89.0999984741211 -15.958000183105469 0 -1
118.9000015258789 93.4000015258789 -14.944000244140625 0 -1
122.4000015258789 83.5 -14.003000259399414 0 -1
121.69999694824219 93.5999984741211 -14.46399974822998 0 -1
117.9000015258789 77.5999984741211 9.59000015258789 1 -1
112.5 79.19999694824219 -14.90999984741211 0 -1
119.69999694824219 87.30000305175781 -14.154000282287598 0 -1
121.9000015258789 84.0999984741211 -15.142000198364258 0 -1
115.69999694824219 88.30000305175781 -14.977999687194824 0 -1
120.69999694824219 85.80000305175781 -14.817999839782715 0 -1
118.5999984741211 79.80000305175781 8.906999588012695 1 -1
121.30000305175781 79.9000015258789 -14.746000289916992 0 -1
122.80000305175781 94.9000015258789 4.164999961853027 3 -1
119 93.30000305175781 -14.890000343322754 0 -1
114.4000015258789 90.0999984741211 -15.652000427246094 0 -1
113 92.0999984741211 -15.116000175476074 0 -1
113.19999694824219 78.69999694824219 -14.269000053405762 0 -1
113.69999694824219 88.5999984741211 -15.730999946594238 0 -1
115.80000305175781 78.19999694824219 -12.543999671936035 0 -1
115.30000305175781 90.19999694824219 -15.501999855041504 0 -1
111.4000015258789 86.80000305175781 -16.783000946044922 0 -1
111.0999984741211 79.9000015258789 -12.98900032043457 0 -1
120.80000305175781 80.4000015258789 -14.458999633789062 0 -1
122.69999694824219 88.69999694824219 -14.920000076293945 0 -1
119.5 77.30000305175781 7.340000152587891 1 -1
117.69999694824219 87.9000015258789 -15.329999923706055 0 -1
114.0999984741211 77.19999694824219 -14.322999954223633 0 -1
114.5 88.5999984741211 -14.940999984741211 0 -1
117.9000015258789 78 8.187999725341797 1 -1
122.5999984741211 85.80000305175781 -15.064000129699707 0 -1
117.4000015258789 80.69999694824219 -13.229999542236328 0 -1
117.30000305175781 85 -14.678000450134277 0 -1
110.19999694824219 88.4000015258789 -16.868000030517578 0 -1
121 83.4000015258789 -14.109999656677246 0 -1
117.0999984741211 81.9000015258789 -13.416000366210938 0 -1
113.4000015258789 92.0999984741211 -15.206000328063965 0 -1
122.5 89.4000015258789 -15.029999732971191 0 -1
114.30000305175781 92.4000015258789 -14.963000297546387 0 -1
118.9000015258789 93.5 -14.909000396728516 0 -1
121.5999984741211 81.30000305175781 -14.685999870300293 0 -1
117 94.0999984741211 -13.972999572753906 0 -1
114.0999984741211 90.5 -15.753999710083008 0 -1
113.0999984741211 83.30000305175781 -14.843000411987305 0 -1
119.4000015258789 86.19999694824219 -13.977999687194824 0 -1
120.19999694824219 79.0999984741211 11.560999870300293 1 -1
120.0999984741211 83.4000015258789 -14.211999893188477 0 -1
114.80000305175781 88.30000305175781 -14.906000137329102 0 -1
115.9000015258789 92.30000305175781 -14.548999786376953 0 -1
113.30000305175781 92.5999984741211 -14.947999954223633 0 -1
119.0999984741211 83.5999984741211 -14.493000030517578 0 -1
110.0999984741211 85.80000305175781 -16.16200065612793 0 -1
122.30000305175781 78.0999984741211 -12.840999603271484 0 -1
113.0999984741211 83.0999984741211 -14.843000411987305 0 -1
111.5999984741211 81.5999984741211 -14.894000053405762 0 -1
112.80000305175781 93.4000015258789 -13.949999809265137 0 -1
115.4000015258789 80.19999694824219 -12.052000045776367 0 -1
116.5999984741211 82.9000015258789 9.019000053405762 1 -1
121.4000015258789 83.4000015258789 -14.293000221252441 0 -1
115.30000305175781 90.30000305175781 -15.54699993133545 0 -1
110.5 81.5 -12.970000267028809 0 -1
113.4000015258789 91.69999694824219 -15.26200008392334 0 -1
115.5999984741211 91.30000305175781 -14.940999984741211 0 -1
114.9000015258789 82.9000015258789 -14.359999656677246 0 -1
119.30000305175781 79.19999694824219 12.008999824523926 1 -1
122.19999694824219 87.5999984741211 -15.237000465393066 0 -1
115.0999984741211 91.0999984741211 -15.470999717712402 0 -1
118.5999984741211 91.4000015258789 -15.998000144958496 0 -1
120.80000305175781 80.5 -14.901000022888184 0 -1
122.0999984741211 83.19999694824219 -14.555000305175781 0 -1
114.30000305175781 76.5999984741211 -14.543000221252441 0 -1
113.5 92 -15.206000328063965 0 -1
116.9000015258789 79 -13.324000358581543 0 -1
110.5999984741211 86.19999694824219 -15.979000091552734 0 -1
119.80000305175781 84.80000305175781 -13.993000030517578 0 -1
110.0999984741211 85.69999694824219 -15.994999885559082 0 -1
110.30000305175781 80.30000305175781 -12.984000205993652 0 -1
115 84.19999694824219 -14.869999885559082 0 -1
110.69999694824219 80 -12.98900032043457 0 -1
121.69999694824219 78.30000305175781 7.026000022888184 1 -1
122.4000015258789 83.69999694824219 -14.003000259399414 0 -1
116.69999694824219 91.5999984741211 -15.888999938964844 0 -1
119.4000015258789 86.0999984741211 -13.972000122070312 0 -1
117.9000015258789 77.80000305175781 8.187999725341797 1 -1
117.5999984741211 90.69999694824219 -16.434999465942383 0 -1
117.30000305175781 86 -14.633999824523926 0 -1
117.19999694824219 86.30000305175781 -14.807999610900879 0 -1
117 93.30000305175781 -14.894000053405762 0 -1
111.80000305175781 92.30000305175781 -14.574000358581543 0 -1
115.69999694824219 88.0999984741211 -14.961000442504883 0 -1
118.69999694824219 85.69999694824219 -13.857000350952148 0 -1
111.30000305175781 82 -14.684000015258789 0 -1
120.30000305175781 80 -13.508999824523926 0 -1
122.80000305175781 81.5 -14.170000076293945 0 -1
111.5 91 -15.527999877929688 0 -1
115.80000305175781 78 -12.819999694824219 0 -1
113.4000015258789 76.30000305175781 -14.395999908447266 0 -1
110 86.5 -16.35300064086914 0 -1
118.9000015258789 76.0999984741211 -12.482999801635742 0 -1
117 76.69999694824219 -13.631999969482422 0 -1
113.4000015258789 76.4000015258789 -14.460000038146973 0 -1
115.5999984741211 91.19999694824219 -14.996999740600586 0 -1
115.5 86.9000015258789 -14.687000274658203 0 -1
115.4000015258789 80.30000305175781 -12.663999557495117 0 -1
118.19999694824219 84.5 12.14799976348877 1 -1
110.9000015258789 78.0999984741211 -13.918999671936035 0 -1
119.69999694824219 87.5 -14.72599983215332 0 -1
122.0999984741211 83.30000305175781 -14.003000259399414 0 -1
114 79.80000305175781 -13.961000442504883 0 -1
114.19999694824219 88.9000015258789 -15.595000267028809 0 -1
114.5999984741211 84.30000305175781 -14.82699966430664 0 -1
118.5999984741211 91.5 -16.017000198364258 0 -1
118.4000015258789 78.0999984741211 8.08899974822998 1 -1
110.69999694824219 80.0999984741211 -12.99899959564209 0 -1
110.9000015258789 93.5 -13.934000015258789 0 -1
112.69999694824219 78.30000305175781 -14.50100040435791 0 -1
119.5 77.0999984741211 -13.086000442504883 0 -1
117.80000305175781 95 -12.79699993133545 0 -1
113.69999694824219 87.5 -15.843000411987305 0 -1
117.9000015258789 93.0999984741211 -14.937999725341797 0 -1
120.5999984741211 81.69999694824219 -14.479999542236328 0 -1
120.9000015258789 86.30000305175781 6.499000072479248 1 -1
119.80000305175781 84.9000015258789 -13.996999740600586 0 -1
112.4000015258789 94.9000015258789 -11.680000305175781 0 -1
114.4000015258789 88.0999984741211 -14.991000175476074 0 -1
119.19999694824219 84.30000305175781 14.220000267028809 2 -1
114.30000305175781 94 -13.472999572753906 0 -1
120.5 87.0999984741211 -14.197999954223633 0 -1
120.30000305175781 80.0999984741211 11.777000427246094 1 -1
122.5999984741211 86 -15.064000129699707 0 -1
122.30000305175781 78.30000305175781 -13.206999778747559 0 -1
117.4000015258789 80.0999984741211 -13.194999694824219 0 -1
117.5 79 -13.5649995803833 0 -1
117.9000015258789 77.69999694824219 8.220999717712402 1 -1
116.69999694824219 91.4000015258789 -15.970000267028809 0 -1
122 86.30000305175781 -14.869000434875488 0 -1
115.9000015258789 77.0999984741211 -12.378000259399414 0 -1
121.5 86.19999694824219 -15.29800033569336 0 -1
116.80000305175781 88.9000015258789 -14.977999687194824 0 -1
118.0999984741211 80.5999984741211 -14.581999778747559 0 -1
118.5 86.5999984741211 -14.21399974822998 0 -1
111.69999694824219 87.19999694824219 -16.959999084472656 0 -1
117 75.9000015258789 -13.385000228881836 0 -1
119.4000015258789 83.9000015258789 5.925000190734863 1 -1
122.80000305175781 94.80000305175781 -13.47700023651123 0 -1
114.9000015258789 82.69999694824219 -14.234999656677246 0 -1
119.0999984741211 83.5 -14.159000396728516 0 -1
113.19999694824219 78.5999984741211 -14.347000122070312 0 -1
113.80000305175781 82.5999984741211 -14.67199993133545 0 -1
111.5 90.9000015258789 -15.817000389099121 0 -1
111.0999984741211 91.19999694824219 -14.829999923706055 0 -1
116.9000015258789 79.69999694824219 -12.956000328063965 0 -1
114.80000305175781 88.0999984741211 -14.817999839782715 0 -1
121.9000015258789 84 -14.237000465393066 0 -1
112.9000015258789 89.5 -16.652999877929688 0 -1
119 93.4000015258789 -14.909000396728516 0 -1
114.5 88.69999694824219 -14.993000030517578 0 -1
110.19999694824219 88.19999694824219 -16.84600067138672 0 -1
111.4000015258789 86.9000015258789 -16.729999542236328 0 -1
112.4000015258789 77.5 -14.557000160217285 0 -1
118.9000015258789 76.19999694824219 -12.51099967956543 0 -1
117.80000305175781 79.69999694824219 -13.407999992370605 0 -1
120.0999984741211 83.30000305175781 -14.116000175476074 0 -1
111.0999984741211 75.69999694824219 -15.13700008392334 0 -1
122.5 89.5 -15.496999740600586 0 -1
117.4000015258789 80 -13.192000389099121 0 -1
117.5 79.0999984741211 -13.444000244140625 0 -1
115.9000015258789 92.5 -14.564000129699707 0 -1
110.9000015258789 92.9000015258789 -14.168999671936035 0 -1
120.19999694824219 79 11.494999885559082 1 -1
117.69999694824219 87.19999694824219 -15.038999557495117 0 -1
121.5999984741211 81 -14.88700008392334 0 -1
118.4000015258789 78.19999694824219 8.482999801635742 1 -1
112.5999984741211 91.69999694824219 -14.993000030517578 0 -1
117.0999984741211 80.9000015258789 -13.029999732971191 0 -1
113 76.69999694824219 -14.572999954223633 0 -1
118 81.0999984741211 -14.78499984741211 0 -1
117.5999984741211 90.5 -15.979000091552734 0 -1
118.9000015258789 93.5999984741211 -14.833999633789062 0 -1
121 83 -14.458999633789062 0 -1
110.80000305175781 83 -14.300000190734863 0 -1
116.5 93.30000305175781 -14.994000434875488 0 -1
114.0999984741211 91.69999694824219 -15.626999855041504 0 -1
110.4000015258789 76 -12.532999992370605 0 -1
113.5 92.0999984741211 -15.187000274658203 0 -1
122.80000305175781 81.9000015258789 -14.805999755859375 0 -1
113.30000305175781 92.19999694824219 -15.185999870300293 0 -1
117.30000305175781 85.9000015258789 -14.619999885559082 0 -1
113.9000015258789 89.80000305175781 -15.37399959564209 0 -1
112.80000305175781 93.30000305175781 -13.86299991607666 0 -1
115 84.0999984741211 -14.83899974822998 0 -1
110.19999694824219 88.30000305175781 -16.834999084472656 0 -1
110.69999694824219 81.69999694824219 -13.821000099182129 0 -1
111.19999694824219 80 -12.970999717712402 0 -1
122.4000015258789 83.5999984741211 -14.029999732971191 0 -1
116.9000015258789 95 -12.640999794006348 0 -1
116.80000305175781 88.19999694824219 -15.625 0 -1
116.5999984741211 82.5 8.131999969482422 1 -1
110.4000015258789 75.80000305175781 -12.272000312805176 0 -1
121.30000305175781 80.30000305175781 -14.746000289916992 0 -1
117.5999984741211 90.5999984741211 -15.979000091552734 0 -1
114.69999694824219 85.5999984741211 -14.902000427246094 0 -1
116 79.30000305175781 -13.331000328063965 0 -1
117 93.19999694824219 -14.989999771118164 0 -1
111.80000305175781 92.19999694824219 -14.642000198364258 0 -1
111.4000015258789 87.19999694824219 -16.799999237060547 0 -1
118.5 86.4000015258789 -14.03499984741211 0 -1
117.0999984741211 81 -13.08899974822998 0 -1
119.9000015258789 83.80000305175781 -13.807000160217285 0 -1
111.5999984741211 80.19999694824219 -13.510000228881836 0 -1
111.5 91.0999984741211 -15.618000030517578 0 -1
115.0999984741211 90.69999694824219 -15.579000473022461 0 -1
110 86.4000015258789 -16.292999267578125 0 -1
120.5999984741211 81.9000015258789 -14.472000122070312 0 -1
112.5 79.30000305175781 -14.91100025177002 0 -1
119.5999984741211 82.0999984741211 -14.336000442504883 0 -1
120.30000305175781 79.9000015258789 11.777000427246094 1 -1
120.69999694824219 85.9000015258789 -14.812999725341797 0 -1
111.30000305175781 83.9000015258789 -14.317000389099121 0 -1
110.5999984741211 85.80000305175781 -15.902000427246094 0 -1
113 92 -15.118000030517578 0 -1
115.19999694824219 78 -13.479999542236328 0 -1
118.19999694824219 84.4000015258789 12.130000114440918 1 -1
122.69999694824219 88.80000305175781 -14.996999740600586 0 -1
115.5 86.80000305175781 -14.694000244140625 0 -1
117.80000305175781 79.5 -13.579999923706055 0 -1
121.5999984741211 80.9000015258789 -14.987000465393066 0 -1
116.5 93.19999694824219 -14.998000144958496 0 -1
117.19999694824219 86.4000015258789 -14.8149995803833 0 -1
118.80000305175781 77.4000015258789 7.6570000648498535 1 -1
115.30000305175781 90.4000015258789 -15.501999855041504 0 -1
110.5 81.5999984741211 -13.069999694824219 0 -1
117.5 94.4000015258789 -13.975000381469727 0 -1
110.9000015258789 77.5 -13.937999725341797 0 -1
114.5999984741211 84.4000015258789 -14.949000358581543 0 -1
115.0999984741211 75.69999694824219 -13.550000190734863 0 -1
121.4000015258789 83 -14.307999610900879 0 -1
118 81.19999694824219 -14.767000198364258 0 -1
123 83.80000305175781 -14.692999839782715 0 -1
118.5 86.5 -13.991999626159668 0 -1
121.19999694824219 94.4000015258789 -13.89900016784668 0 -1
111.19999694824219 80.0999984741211 -12.979000091552734 0 -1
112.69999694824219 78.19999694824219 -14.661999702453613 0 -1
113.69999694824219 87.4000015258789 -15.8100004196167 0 -1
115.9000015258789 77.30000305175781 -12.982000350952148 0 -1
120.5999984741211 81.80000305175781 -14.477999687194824 0 -1
116.69999694824219 91.5 -15.946000099182129 0 -1
119.4000015258789 87 -13.937999725341797 0 -1
121.5 86.30000305175781 -15.36299991607666 0 -1
113.19999694824219 78.80000305175781 -14.229999542236328 0 -1
117.9000015258789 76.9000015258789 -12.793000221252441 0 -1
111.69999694824219 87.30000305175781 -16.985000610351562 0 -1
111.5999984741211 80.30000305175781 -13.305000305175781 0 -1
117.5 78.9000015258789 -13.45300006866455 0 -1
113.80000305175781 82.5 -13.979000091552734 0 -1
120.80000305175781 80.5999984741211 -14.458999633789062 0 -1
119.5 77.5 7.340000152587891 1 -1
119 94 -14.602999687194824 0 -1
122.0999984741211 83.0999984741211 -14.003000259399414 0 -1
120.5 87.19999694824219 -14.163000106811523 0 -1
121.69999694824219 77.9000015258789 -13.298999786376953 0 -1
117 76 -13.800000190734863 0 -1
113.0999984741211 83 -14.75 0 -1
119.19999694824219 84.69999694824219 11.635000228881836 1 -1
119.0999984741211 83.4000015258789 -14.541000366210938 0 -1
110.19999694824219 88.0999984741211 -16.834999084472656 0 -1
111 80.80000305175781 -12.994000434875488 0 -1
122.30000305175781 77.9000015258789 -12.880999565124512 0 -1
122.4000015258789 83.80000305175781 -15.116000175476074 0 -1
122.5999984741211 85.5999984741211 -15.467000007629395 0 -1
114 95 -11.486000061035156 0 -1
113.4000015258789 91.80000305175781 -15.244000434875488 0 -1
115.69999694824219 88.5 -14.977999687194824 0 -1
114.30000305175781 76.69999694824219 -14.53499984741211 0 -1
121.19999694824219 77 -12.350000381469727 0 -1
118.69999694824219 85.30000305175781 -13.909000396728516 0 -1
118.5999984741211 79.5999984741211 8.913000106811523 1 -1
112.4000015258789 93.5 -13.678999900817871 0 -1
122.5 89.19999694824219 -14.99899959564209 0 -1
114.9000015258789 82.80000305175781 -14.241999626159668 0 -1
112.5 78.9000015258789 -14.859000205993652 0 -1
119.30000305175781 79.30000305175781 12.01099967956543 1 -1
118.0999984741211 80.19999694824219 -13.184000015258789 0 -1
118.30000305175781 87.19999694824219 -14.305000305175781 0 -1
119.80000305175781 84 -14.831999778747559 0 -1
114.0999984741211 91.9000015258789 -15.626999855041504 0 -1
115.5999984741211 91.5999984741211 -14.88599967956543 0 -1
120.19999694824219 78.9000015258789 11.560999870300293 1 -1
120.0999984741211 83.19999694824219 -14.359999656677246 0 -1
113.30000305175781 92.4000015258789 -14.947999954223633 0 -1
116.19999694824219 77.5 -13.626999855041504 0 -1
121.9000015258789 84.4000015258789 -15.199999809265137 0 -1
110.0999984741211 85.5999984741211 -15.958999633789062 0 -1
113.9000015258789 89.5999984741211 -15.270999908447266 0 -1
115 84.30000305175781 -15.003000259399414 0 -1
110.30000305175781 80.19999694824219 -12.758999824523926 0 -1
117.9000015258789 92.19999694824219 -15.744999885559082 0 -1
119.5999984741211 82.80000305175781 -14.517999649047852 0 -1
122.19999694824219 88 -15.211000442504883 0 -1
115.19999694824219 78.19999694824219 -12.489999771118164 0 -1
110.9000015258789 92.80000305175781 -14.23799991607666 0 -1
120.69999694824219 86 -14.817999839782715 0 -1
117.5999984741211 90.4000015258789 -15.680000305175781 0 -1
119.5 92.80000305175781 -14.838000297546387 0 -1
117 93.4000015258789 -14.902000427246094 0 -1
117.9000015258789 76.80000305175781 -12.972000122070312 0 -1
121.5999984741211 81.0999984741211 -14.685999870300293 0 -1
120.0999984741211 83.69999694824219 -14.16100025177002 0 -1
119.30000305175781 79.4000015258789 12.008999824523926 1 -1
112.5999984741211 91.80000305175781 -14.845000267028809 0 -1
118.80000305175781 77.19999694824219 7.855000019073486 1 -1
113.4000015258789 76.5 -14.331000328063965 0 -1
111.0999984741211 91.0999984741211 -14.996999740600586 0 -1
121 83.0999984741211 -14.220999717712402 0 -1
110.5999984741211 86 -15.970999717712402 0 -1
119 76.5999984741211 -12.315999984741211 0 -1
114.4000015258789 88.19999694824219 -14.939000129699707 0 -1
122.80000305175781 81.80000305175781 -14.67199993133545 0 -1
113.30000305175781 92.30000305175781 -15.121999740600586 0 -1
112.80000305175781 93.19999694824219 -13.954000473022461 0 -1
123 83.5999984741211 -14.498000144958496 0 -1
110.80000305175781 83.0999984741211 -14.100000381469727 0 -1
117.9000015258789 77.9000015258789 8.220999717712402 1 -1
117.69999694824219 87.0999984741211 -15.067999839782715 0 -1
113.4000015258789 91.9000015258789 -15.26200008392334 0 -1
117.80000305175781 94.9000015258789 -12.972999572753906 0 -1
118.5999984741211 79.5 8.920000076293945 1 -1
117.30000305175781 85.80000305175781 -14.633999824523926 0 -1
117.4000015258789 79.9000015258789 -13.324999809265137 0 -1
114.30000305175781 94.0999984741211 -13.234999656677246 0 -1
113.9000015258789 89.69999694824219 -15.12600040435791 0 -1
119.9000015258789 83.9000015258789 -14.86400032043457 0 -1
114.80000305175781 88.5 -14.73799991607666 0 -1
114.5 88.80000305175781 -14.996000289916992 0 -1
115.4000015258789 79.9000015258789 -12.689000129699707 0 -1
116.80000305175781 88.30000305175781 -15.446000099182129 0 -1
114 79.69999694824219 -13.861000061035156 0 -1
110.4000015258789 75.9000015258789 -12.472999572753906 0 -1
116.80000305175781 83.0999984741211 8.38599967956543 1 -1
122 86.19999694824219 -14.857000350952148 0 -1
115.80000305175781 77.9000015258789 -12.831999778747559 0 -1
111.19999694824219 79.9000015258789 -12.979000091552734 0 -1
122.69999694824219 88.9000015258789 -15.95199966430664 0 -1
122.5 89.0999984741211 -14.967000007629395 0 -1
116.69999694824219 91.30000305175781 -15.946000099182129 0 -1
118.80000305175781 77.30000305175781 8.565999984741211 1 -1
112.80000305175781 94.19999694824219 -13.220999717712402 0 -1
118.69999694824219 85.5 -13.890999794006348 0 -1
114.69999694824219 86 -14.835000038146973 0 -1
114.9000015258789 82.5999984741211 -14.241999626159668 0 -1
111.80000305175781 92.5999984741211 -14.552000045776367 0 -1
119.5999984741211 85.19999694824219 11.4399995803833 1 -1
115.19999694824219 78.0999984741211 -12.737000465393066 0 -1
118.9000015258789 76.30000305175781 -12.413999557495117 0 -1
115.5 86.69999694824219 -14.64900016784668 0 -1
113.69999694824219 87.30000305175781 -15.868000030517578 0 -1
117.80000305175781 79.5999984741211 8.847000122070312 1 -1
118.5 86.30000305175781 -13.991999626159668 0 -1
114.4000015258789 88.30000305175781 -14.984999656677246 0 -1
114.30000305175781 94.19999694824219 -12.845999717712402 0 -1
112.9000015258789 89.4000015258789 -16.586999893188477 0 -1
123 83.69999694824219 -14.489999771118164 0 -1
117.9000015258789 92.4000015258789 -15.744999885559082 0 -1
113.5 91.19999694824219 -15.545999526977539 0 -1
116.9000015258789 79.80000305175781 -12.909000396728516 0 -1
115.9000015258789 92.5999984741211 -14.515000343322754 0 -1
117.19999694824219 86.5 -14.829000473022461 0 -1
121.19999694824219 76.80000305175781 -12.890999794006348 0 -1
110.30000305175781 79.5 -12.824999809265137 0 -1
121.5 86.5 -15.36299991607666 0 -1
110.9000015258789 77.4000015258789 -13.914999961853027 0 -1
114.5999984741211 84.5 -14.82699966430664 0 -1
118.5999984741211 91.69999694824219 -15.960000038146973 0 -1
117.9000015258789 77 -12.704000473022461 0 -1
118.4000015258789 78.30000305175781 8.055999755859375 1 -1
120.5999984741211 81 -14.458000183105469 0 -1
112.69999694824219 78.0999984741211 -14.656000137329102 0 -1
115.9000015258789 77.19999694824219 -12.593999862670898 0 -1
120.30000305175781 80.80000305175781 -14.37399959564209 0 -1
120 88.0999984741211 -14.79800033569336 0 -1
114 79.5 -13.732999801635742 0 -1
118.9000015258789 93.69999694824219 -14.729999542236328 0 -1
118.19999694824219 84.30000305175781 12.057999610900879 1 -1
119.19999694824219 84.5999984741211 11.364999771118164 1 -1
115.0999984741211 75.30000305175781 -13.979999542236328 0 -1
115.30000305175781 75.0999984741211 -13.979999542236328 0 -1
120.69999694824219 85 7.4120001792907715 1 -1
119.5999984741211 82.69999694824219 -14.253999710083008 0 -1
116 78.9000015258789 -13.465999603271484 0 -1
119 94.0999984741211 -14.553999900817871 0 -1
113.19999694824219 77.9000015258789 -14.638999938964844 0 -1
122 86.0999984741211 -14.833000183105469 0 -1
122.0999984741211 83 -14.555000305175781 0 -1
110 86.30000305175781 -16.312999725341797 0 -1
122.5 89.30000305175781 -15.496999740600586 0 -1
114.69999694824219 85.9000015258789 -14.845000267028809 0 -1
111.69999694824219 87.4000015258789 -16.959999084472656 0 -1
111.5 90.69999694824219 -15.817000389099121 0 -1
119.0999984741211 83.30000305175781 -14.555000305175781 0 -1
118.0999984741211 80.30000305175781 -13.215999603271484 0 -1
110.69999694824219 81.80000305175781 -14.484000205993652 0 -1
122.5999984741211 85.69999694824219 -14.977999687194824 0 -1
113.30000305175781 93 -14.232000350952148 0 -1
122.9000015258789 87.19999694824219 -15.291999816894531 0 -1
111.0999984741211 90.9000015258789 -15.763999938964844 0 -1
114.19999694824219 89 -15.54699993133545 0 -1
111.4000015258789 87.0999984741211 -16.777999877929688 0 -1
117.9000015258789 92.30000305175781 -15.67300033569336 0 -1
120.5999984741211 80.9000015258789 -14.61400032043457 0 -1
118.9000015258789 76.4000015258789 -12.51099967956543 0 -1
117.5 94.30000305175781 -13.986000061035156 0 -1
117.0999984741211 81.0999984741211 -13.14799976348877 0 -1
119.69999694824219 87.5999984741211 -14.847000122070312 0 -1
114.0999984741211 91.80000305175781 -15.642999649047852 0 -1
121.30000305175781 80.19999694824219 -14.732999801635742 0 -1
121.5 86.4000015258789 -15.340999603271484 0 -1
121.19999694824219 76.9000015258789 -12.359000205993652 0 -1
120.5 87.9000015258789 -16.295000076293945 0 -1
116.19999694824219 77.5999984741211 -13.628000259399414 0 -1
119.5 92.9000015258789 -14.907999992370605 0 -1
121.9000015258789 84.30000305175781 -15.142000198364258 0 -1
114.30000305175781 76.30000305175781 -14.269000053405762 0 -1
116.80000305175781 83.80000305175781 9.583999633789062 1 -1
116.5 93.5999984741211 -14.949999809265137 0 -1
114.0999984741211 92 -15.699000358581543 0 -1
112.9000015258789 89.80000305175781 -15.9399995803833 0 -1
115.19999694824219 78.30000305175781 -12.743000030517578 0 -1
116.80000305175781 88.0999984741211 -15.619999885559082 0 -1
120.69999694824219 85.0999984741211 7.559000015258789 1 -1
110.4000015258789 75.69999694824219 -12.654999732971191 0 -1
119.5 92.69999694824219 -14.907999992370605 0 -1
112.4000015258789 93.5999984741211 -13.781999588012695 0 -1
113.0999984741211 83.9000015258789 -14.987000465393066 0 -1
117.80000305175781 79.4000015258789 8.847000122070312 1 -1
120.0999984741211 83.5999984741211 -14.211999893188477 0 -1
111.30000305175781 83.80000305175781 -14.288000106811523 0 -1
110.5999984741211 85.9000015258789 -15.947999954223633 0 -1
111 80.69999694824219 -13.196999549865723 0 -1
112.5999984741211 91.9000015258789 -14.72700023651123 0 -1
117.30000305175781 85.69999694824219 -14.821000099182129 0 -1
114.5 88.4000015258789 -14.984999656677246 0 -1
113.9000015258789 90 -15.251999855041504 0 -1
110.69999694824219 81.9000015258789 -13.86299991607666 0 -1
117.5999984741211 90.30000305175781 -15.901000022888184 0 -1
116.9000015258789 94.80000305175781 -12.947999954223633 0 -1
115.30000305175781 90.5 -15.277999877929688 0 -1
120.30000305175781 84.19999694824219 7.624000072479248 1 -1
110.5 81.69999694824219 -13.170000076293945 0 -1
111.0999984741211 91 -15.684000015258789 0 -1
118.9000015258789 93.80000305175781 -14.704000473022461 0 -1
120.69999694824219 95 4.201000213623047 3 -1
119 76.69999694824219 -12.843000411987305 0 -1
113.80000305175781 82.9000015258789 -14.685999870300293 0 -1
120.80000305175781 80.19999694824219 -13.77299976348877 0 -1
117.0999984741211 81.19999694824219 -13.260000228881836 0 -1
115.9000015258789 77.4000015258789 -12.743000030517578 0 -1
118.30000305175781 87.0999984741211 -14.335000038146973 0 -1
111.0999984741211 75.5999984741211 -15.085000038146973 0 -1
119.4000015258789 86.9000015258789 -13.932999610900879 0 -1
122.80000305175781 81.69999694824219 -14.258000373840332 0 -1
121.4000015258789 83.0999984741211 -14.364999771118164 0 -1
121.69999694824219 93.4000015258789 -14.784000396728516 0 -1
118 81.30000305175781 -14.87600040435791 0 -1
120.19999694824219 79.80000305175781 11.819999694824219 1 -1
110.5999984741211 85.5999984741211 -15.902000427246094 0 -1
115.4000015258789 80 -12.609999656677246 0 -1
113.4000015258789 91.4000015258789 -15.66100025177002 0 -1
115.0999984741211 75.5 -13.550000190734863 0 -1
118.80000305175781 77.0999984741211 8.005999565124512 1 -1
115 84.4000015258789 -14.840999603271484 0 -1
122.69999694824219 89 -14.996999740600586 0 -1
116 79.0999984741211 -13.465999603271484 0 -1
115.5999984741211 91.5 -14.940999984741211 0 -1
119.5999984741211 85 11.404000282287598 1 -1
115.80000305175781 78.80000305175781 -13.871000289916992 0 -1
121.69999694824219 77.5999984741211 -12.342000007629395 0 -1
111.80000305175781 92.5 -14.574000358581543 0 -1
111 80.5999984741211 -12.994000434875488 0 -1
110.80000305175781 83.19999694824219 -14.562000274658203 0 -1
114.30000305175781 93.69999694824219 -13.626999855041504 0 -1
113.9000015258789 90.0999984741211 -15.515999794006348 0 -1
118.30000305175781 87.5 -14.685999870300293 0 -1
121.0999984741211 78.69999694824219 7.513000011444092 1 -1
119.9000015258789 83.5 -14.321000099182129 0 -1
110.9000015258789 77.80000305175781 -13.916999816894531 0 -1
114.19999694824219 88.69999694824219 -15.609999656677246 0 -1
