VERSION .7
FIELDS x y z label object
SIZE 4 4 4 4 4
TYPE F F F I I
COUNT 1 1 1 1 1
WIDTH 865
HEIGHT 1
POINTS 865
VIEWPOINT 0 0 0 1 0 0 0
DATA ascii
114.0999984741211 79.80000305175781 -13.770999908447266 0 -1
115.5999984741211 87.69999694824219 -14.968999862670898 0 -1
115.30000305175781 86.5999984741211 -14.869999885559082 0 -1
114.0999984741211 84.9000015258789 -15.258999824523926 0 -1
119.80000305175781 91.4000015258789 -13.897000312805176 1 -1
119.4000015258789 91.80000305175781 -16.429000854492188 0 -1
118.80000305175781 86.80000305175781 -13.821999549865723 0 -1
114.5999984741211 87.80000305175781 -14.946999549865723 0 -1
117.80000305175781 82.4000015258789 -13.741000175476074 0 -1
112.4000015258789 88.30000305175781 -16.615999221801758 0 -1
119.30000305175781 84.19999694824219 -13.791000366210938 0 -1
122.80000305175781 83.0999984741211 -13.928000450134277 0 -1
113.4000015258789 94.69999694824219 -11.920999526977539 0 -1
113.5999984741211 88.0999984741211 -15.630000114440918 0 -1
123 79.30000305175781 -13.484000205993652 0 -1
113.5 84.30000305175781 -14.678000450134277 0 -1
117.30000305175781 75.30000305175781 -12.979999542236328 0 -1
113.19999694824219 92.30000305175781 -14.807000160217285 0 -1
113.4000015258789 78.9000015258789 -14.616999626159668 0 -1
114.30000305175781 81.5999984741211 -14.086999893188477 0 -1
110.4000015258789 78.69999694824219 -12.956000328063965 0 -1
110.5999984741211 79.5999984741211 -12.918999671936035 0 -1
114.69999694824219 88.30000305175781 -14.9399995803833 0 -1
113.0999984741211 86.9000015258789 -15.715999603271484 0 -1
122.0999984741211 81.69999694824219 -14.852999687194824 0 -1
116.5999984741211 76 -13.866000175476074 0 -1
111 82.5 -14.321999549865723 0 -1
120 85.30000305175781 -13.852999687194824 0 -1
120.0999984741211 87 -13.432999610900879 0 -1
112.30000305175781 83.5 -14.395000457763672 0 -1
119 88.69999694824219 -14.845999717712402 0 -1
117.4000015258789 86.30000305175781 -14.45300006866455 0 -1
119.30000305175781 84.0999984741211 -13.579000473022461 0 -1
116.9000015258789 91.80000305175781 -15.729000091552734 0 -1
113.80000305175781 76.5999984741211 -14.777000427246094 0 -1
116.80000305175781 91.4000015258789 -15.967000007629395 0 -1
115.5 90.5 -15.503000259399414 0 -1
118.69999694824219 81.0999984741211 -14.291000366210938 0 -1
110.80000305175781 81.30000305175781 -12.890000343322754 0 -1
121.80000305175781 84.19999694824219 -14.062000274658203 0 -1
115.30000305175781 86.69999694824219 -14.847000122070312 0 -1
111.30000305175781 79.4000015258789 -13.821999549865723 0 -1
116.30000305175781 84.80000305175781 -14.329999923706055 0 -1
113.9000015258789 84.80000305175781 -15.08899974822998 0 -1
111.19999694824219 82.19999694824219 -14.614999771118164 0 -1
120.9000015258789 80.5999984741211 -14.234999656677246 0 -1
112.4000015258789 88.19999694824219 -16.650999069213867 0 -1
117.5999984741211 85.0999984741211 -14.243000030517578 0 -1
120.80000305175781 76.80000305175781 -12.357000350952148 0 -1
117.5999984741211 77.9000015258789 -12.722000122070312 0 -1
122.19999694824219 76.80000305175781 -12.324999809265137 0 -1
119.80000305175781 80.19999694824219 -13.76200008392334 0 -1
120.5 84.5999984741211 -13.864999771118164 0 -1
120.4000015258789 81.30000305175781 -14.28499984741211 0 -1
115.5 75.0999984741211 -13.437999725341797 0 -1
112.5 88.9000015258789 -16.496000289916992 0 -1
119.80000305175781 91.5 -13.800000190734863 1 -1
112.5999984741211 87 -15.986000061035156 0 -1
114.9000015258789 87.5 -14.826000213623047 0 -1
112 81.5 -14.642000198364258 0 -1
117.30000305175781 88.5999984741211 -15.210000038146973 0 -1
117.4000015258789 77.0999984741211 -13.395000457763672 0 -1
113.9000015258789 79.69999694824219 -13.821999549865723 0 -1
122.30000305175781 82.9000015258789 -14.416000366210938 0 -1
122.5999984741211 81.4000015258789 -14.194000244140625 0 -1
117.9000015258789 89.5 -15.38599967956543 0 -1
115.0999984741211 86.5 -14.958000183105469 0 -1
112 90.80000305175781 -16.798999786376953 0 -1
114 89.69999694824219 -15.831999778747559 0 -1
122.5 77.80000305175781 -13.5649995803833 0 -1
115.19999694824219 83.69999694824219 -14.182000160217285 0 -1
115.4000015258789 85.9000015258789 -14.79699993133545 0 -1
121.30000305175781 84.5999984741211 -13.967000007629395 0 -1
113.69999694824219 80.9000015258789 -14.668000221252441 0 -1
112.80000305175781 79.5999984741211 -14.82800006866455 0 -1
111.80000305175781 88.69999694824219 -17.30299949645996 0 -1
118.4000015258789 89.19999694824219 -14.935999870300293 0 -1
114.69999694824219 88.19999694824219 -14.965999603271484 0 -1
111.69999694824219 80.5 -13.869999885559082 0 -1
119.5999984741211 93.69999694824219 -13.96500015258789 0 -1
114.5 83 -14.22700023651123 0 -1
118.5 75.80000305175781 -12.817999839782715 0 -1
120.69999694824219 86.30000305175781 -13.942999839782715 0 -1
110.9000015258789 87.9000015258789 -16.922000885009766 0 -1
117.19999694824219 80.0999984741211 -12.862000465393066 0 -1
118.80000305175781 87 -13.821999549865723 0 -1
112.69999694824219 91.0999984741211 -15.46500015258789 0 -1
113.30000305175781 80.5 -14.437000274658203 0 -1
120.19999694824219 76.5 -12.468999862670898 0 -1
117.80000305175781 82.19999694824219 -13.640000343322754 0 -1
121 77.80000305175781 -13.260000228881836 0 -1
111.4000015258789 75.0999984741211 -12.380000114440918 0 -1
116.19999694824219 79.9000015258789 -12.628999710083008 0 -1
114.30000305175781 81.19999694824219 -14.506999969482422 0 -1
115.80000305175781 75.4000015258789 -13.531999588012695 0 -1
113.80000305175781 76 -14.986000061035156 0 -1
113.69999694824219 82.9000015258789 -14.39900016784668 0 -1
122.5 77.69999694824219 -12.914999961853027 0 -1
121.0999984741211 88.0999984741211 9.722999572753906 2 -1
111.19999694824219 82.30000305175781 -14.75100040435791 0 -1
118.9000015258789 95 -12.991999626159668 0 -1
120.80000305175781 76.9000015258789 -12.3149995803833 0 -1
119.80000305175781 80.30000305175781 -13.866000175476074 0 -1
122.5999984741211 81.30000305175781 -14.324000358581543 0 -1
118.69999694824219 94.4000015258789 -13.920000076293945 0 -1
118.19999694824219 77.9000015258789 -13.515000343322754 0 -1
116.80000305175781 76.0999984741211 -13.779999732971191 0 -1
116.5999984741211 93.4000015258789 -14.83899974822998 0 -1
120.4000015258789 94.69999694824219 -12.942000389099121 0 -1
115.19999694824219 83.5999984741211 -14.180999755859375 0 -1
114.80000305175781 85.69999694824219 -15.180000305175781 0 -1
112.30000305175781 83.69999694824219 -14.35200023651123 0 -1
113.19999694824219 77.0999984741211 -14.557999610900879 0 -1
121.9000015258789 78.4000015258789 -13.78600025177002 0 -1
115.0999984741211 86.4000015258789 -14.982000350952148 0 -1
116.9000015258789 88.4000015258789 -15.288999557495117 0 -1
112.5 89 -16.459999084472656 0 -1
119.0999984741211 76.9000015258789 -12.864999771118164 0 -1
122.4000015258789 79 -13.14799976348877 0 -1
115 81.5999984741211 -13.567000389099121 0 -1
118.5 75.9000015258789 -12.756999969482422 0 -1
115.4000015258789 86 -14.78600025177002 0 -1
121.30000305175781 84.9000015258789 -13.9399995803833 0 -1
114 89.5 -15.6899995803833 0 -1
110.4000015258789 78.5 -12.998000144958496 0 -1
118.30000305175781 90.4000015258789 -15.925000190734863 0 -1
118.0999984741211 84.19999694824219 -13.77400016784668 0 -1
112 90.69999694824219 -16.86400032043457 0 -1
110.69999694824219 85.69999694824219 -15.876999855041504 0 -1
113.0999984741211 86.69999694824219 -15.715999603271484 0 -1
119.0999984741211 94.30000305175781 -13.758999824523926 0 -1
113.69999694824219 81.9000015258789 -14.223999977111816 0 -1
116.5 81.5 -12.163999557495117 0 -1
113.9000015258789 84.0999984741211 -14.661999702453613 0 -1
110.30000305175781 74.69999694824219 -11.840999603271484 0 -1
115.69999694824219 92.69999694824219 -14.428000450134277 0 -1
113.5999984741211 88.19999694824219 -15.645000457763672 0 -1
116.0999984741211 79.4000015258789 -12.82699966430664 0 -1
113.30000305175781 80.4000015258789 -14.456000328063965 0 -1
116.4000015258789 86.9000015258789 -14.810999870300293 0 -1
118.4000015258789 89.0999984741211 -14.979000091552734 0 -1
118.5 91.19999694824219 -15.946000099182129 0 -1
114.9000015258789 87.30000305175781 -14.77400016784668 0 -1
117.30000305175781 91.5999984741211 -15.96500015258789 0 -1
122.80000305175781 83 -13.767999649047852 0 -1
113 81.4000015258789 -14.666000366210938 0 -1
113.80000305175781 87.19999694824219 -15.609999656677246 0 -1
123 79.19999694824219 -13.003000259399414 0 -1
113.9000015258789 79 -13.904999732971191 0 -1
113.19999694824219 92.5 -14.925999641418457 0 -1
114.5999984741211 87.9000015258789 -14.82800006866455 0 -1
120.80000305175781 90.19999694824219 -9.76200008392334 1 -1
120 85.4000015258789 -13.784000396728516 0 -1
120.0999984741211 86.9000015258789 -13.456999778747559 0 -1
117.5999984741211 84.9000015258789 -13.914999961853027 0 -1
111.4000015258789 75.4000015258789 -12.517000198364258 0 -1
110.69999694824219 85.30000305175781 -15.791999816894531 0 -1
116.5999984741211 75.80000305175781 -13.76099967956543 0 -1
118.30000305175781 77.0999984741211 -13.279999732971191 0 -1
118.30000305175781 93.9000015258789 -13.708999633789062 0 -1
110.5999984741211 79.5 -12.9399995803833 0 -1
119.5999984741211 93.9000015258789 -13.96500015258789 0 -1
112.4000015258789 88.9000015258789 -16.84600067138672 0 -1
118.5999984741211 88.9000015258789 -15.126999855041504 0 -1
110.80000305175781 81.4000015258789 -12.89799976348877 0 -1
114.0999984741211 78.9000015258789 -13.6850004196167 0 -1
116.69999694824219 95 -13.737000465393066 0 -1
117.4000015258789 87.80000305175781 -15.14900016784668 0 -1
114.30000305175781 82.19999694824219 -14.20199966430664 0 -1
119.9000015258789 76.0999984741211 -12.633000373840332 0 -1
113.9000015258789 84.19999694824219 -14.847999572753906 0 -1
119.5999984741211 78.5 -12.770999908447266 0 -1
115.9000015258789 80.69999694824219 -11.857000350952148 0 -1
120.5 84.5 -13.895999908447266 0 -1
120.4000015258789 81.4000015258789 -14.256999969482422 0 -1
117.19999694824219 81.69999694824219 -12.930999755859375 0 -1
117 83.5 -13.470999717712402 0 -1
117.69999694824219 80.5999984741211 -13.282999992370605 0 -1
116.30000305175781 84.9000015258789 -14.359000205993652 0 -1
118.69999694824219 78.69999694824219 -13.21500015258789 0 -1
116.80000305175781 75.4000015258789 -13.39900016784668 0 -1
120.9000015258789 80.69999694824219 -14.571000099182129 0 -1
119.9000015258789 93.5 -14.279000282287598 0 -1
119.4000015258789 80.5 -13.84000015258789 0 -1
113 81.30000305175781 -14.661999702453613 0 -1
116 92.0999984741211 -14.692999839782715 0 -1
116.80000305175781 91.5 -15.996000289916992 0 -1
122.5 77.4000015258789 -12.619999885559082 0 -1
115.5 90.4000015258789 -15.652000427246094 0 -1
117.9000015258789 86.5999984741211 -14.359999656677246 0 -1
121.69999694824219 88.5999984741211 -8.505000114440918 1 -1
110.5999984741211 79.19999694824219 -12.972999572753906 0 -1
115.69999694824219 77.4000015258789 -12.864999771118164 0 -1
116.5999984741211 93.19999694824219 -14.815999984741211 0 -1
122 94.9000015258789 3.609999895095825 3 -1
113.9000015258789 79.0999984741211 -13.854999542236328 0 -1
122 76.5999984741211 -12.145999908447266 0 -1
115.19999694824219 83.80000305175781 -14.190999984741211 0 -1
118.5 93.0999984741211 -14.916999816894531 0 -1
116.19999694824219 80.0999984741211 -12.347999572753906 0 -1
116.0999984741211 79.5999984741211 -12.838000297546387 0 -1
114.0999984741211 84 -14.640000343322754 0 -1
122.19999694824219 76.9000015258789 -12.503000259399414 0 -1
115.5 75 -13.343999862670898 0 -1
113.5 84.4000015258789 -14.699000358581543 0 -1
120.80000305175781 90.30000305175781 -9.77400016784668 1 -1
122.4000015258789 79.19999694824219 -13.04699993133545 0 -1
119.5 83.80000305175781 -14.060999870300293 0 -1
121.4000015258789 79.4000015258789 -13.901000022888184 0 -1
116.5999984741211 75.9000015258789 -13.888999938964844 0 -1
111.80000305175781 88.5999984741211 -17.16900062561035 0 -1
111.19999694824219 82.5999984741211 -14.565999984741211 0 -1
117.4000015258789 87.69999694824219 -15.097999572753906 0 -1
114.30000305175781 82.30000305175781 -14.210000038146973 0 -1
122.19999694824219 77.19999694824219 -12.550000190734863 0 -1
114.5 83.0999984741211 -14.241999626159668 0 -1
121.19999694824219 89.80000305175781 -8.998000144958496 1 -1
118.9000015258789 81.80000305175781 -14.375 0 -1
120.4000015258789 94.5 -13.277000427246094 0 -1
113.4000015258789 94.30000305175781 -12.987000465393066 0 -1
112.19999694824219 75.5999984741211 -14.269000053405762 0 -1
118 84.69999694824219 -13.95300006866455 0 -1
120.19999694824219 76.4000015258789 -12.40999984741211 0 -1
117.5 88.80000305175781 -15.265999794006348 0 -1
119.4000015258789 80.4000015258789 -13.770999908447266 0 -1
112.9000015258789 84.9000015258789 -14.706999778747559 0 -1
112.0999984741211 78.4000015258789 -14.755000114440918 0 -1
119.69999694824219 75.69999694824219 -12.656000137329102 0 -1
119 88.80000305175781 -14.854000091552734 0 -1
116.69999694824219 79.69999694824219 -11.96500015258789 0 -1
122.5999984741211 81 -14.079999923706055 0 -1
122.30000305175781 82.5 -14.571999549865723 0 -1
115.5999984741211 87.5999984741211 -14.996999740600586 0 -1
121.69999694824219 88.69999694824219 -8.628000259399414 1 -1
115.0999984741211 86.0999984741211 -15.03499984741211 0 -1
112.80000305175781 79.5 -14.793000221252441 0 -1
119.4000015258789 91.69999694824219 -16.499000549316406 0 -1
112.69999694824219 91 -15.41100025177002 0 -1
117.80000305175781 82.30000305175781 -13.538999557495117 0 -1
116.19999694824219 80 -12.553000450134277 0 -1
117.0999984741211 86.5999984741211 -14.555999755859375 0 -1
111.69999694824219 80.5999984741211 -13.932999610900879 0 -1
116.0999984741211 94.9000015258789 -13.611000061035156 0 -1
115.80000305175781 75.5 -13.531999588012695 0 -1
118.30000305175781 76.5 -12.78499984741211 0 -1
115.69999694824219 77.69999694824219 -12.906000137329102 0 -1
110.30000305175781 74.5 -11.840999603271484 0 -1
112.5999984741211 86.0999984741211 -15.894000053405762 0 -1
116.5999984741211 93.30000305175781 -14.942999839782715 0 -1
113.69999694824219 82.80000305175781 -14.354999542236328 0 -1
113.30000305175781 80.5999984741211 -14.607999801635742 0 -1
115.30000305175781 86.80000305175781 -14.803999900817871 0 -1
119.80000305175781 91.5999984741211 -13.852999687194824 1 -1
114.80000305175781 85.5999984741211 -15.144000053405762 0 -1
115.5999984741211 88 -14.993000030517578 0 -1
115.69999694824219 93.0999984741211 -14.505999565124512 0 -1
121 77.4000015258789 -12.177000045776367 0 -1
122 76.5 -12.347999572753906 0 -1
111 82.4000015258789 -14.234000205993652 0 -1
111.30000305175781 79.30000305175781 -13.829000473022461 0 -1
118.9000015258789 81.9000015258789 -14.404999732971191 0 -1
117.69999694824219 80.4000015258789 -13.282999992370605 0 -1
112.30000305175781 83.5999984741211 -14.387999534606934 0 -1
122.80000305175781 83.4000015258789 -13.644000053405762 0 -1
113.4000015258789 79 -14.616000175476074 0 -1
116.80000305175781 90.80000305175781 -15.854999542236328 0 -1
120.69999694824219 86.4000015258789 -13.95300006866455 0 -1
120.80000305175781 88.30000305175781 11.333999633789062 2 -1
121.4000015258789 79.5999984741211 -13.901000022888184 0 -1
121 92.80000305175781 -14.592000007629395 0 -1
119.0999984741211 76.80000305175781 -12.281000137329102 0 -1
117.30000305175781 91.5 -15.993000030517578 0 -1
122.5999984741211 80.9000015258789 -14.243000030517578 0 -1
116.0999984741211 79.5 -12.82699966430664 0 -1
119 83.19999694824219 -13.928000450134277 0 -1
116.4000015258789 86.80000305175781 -14.763999938964844 0 -1
118.5 77.69999694824219 -12.972000122070312 0 -1
114.0999984741211 79.0999984741211 -13.944000244140625 0 -1
120.19999694824219 91.69999694824219 -13.680000305175781 1 -1
121.5999984741211 87.5999984741211 -10.513999938964844 1 -1
119.30000305175781 84 -13.791000366210938 0 -1
123 79 -12.98900032043457 0 -1
112.9000015258789 84.80000305175781 -14.682000160217285 0 -1
117.0999984741211 86.69999694824219 -14.536999702453613 0 -1
119.0999984741211 94.19999694824219 -15.378000259399414 0 -1
113.69999694824219 81.80000305175781 -14.529000282287598 0 -1
121.9000015258789 78.80000305175781 -13.605999946594238 0 -1
113.9000015258789 84 -14.62600040435791 0 -1
113.5999984741211 88.30000305175781 -15.600000381469727 0 -1
120.4000015258789 81.19999694824219 -14.529000282287598 0 -1
120.5 84.69999694824219 -13.866999626159668 0 -1
121.80000305175781 84.30000305175781 -13.954000473022461 0 -1
117 83.69999694824219 -13.600000381469727 0 -1
116.69999694824219 79.5 -12.465999603271484 0 -1
110.9000015258789 87.19999694824219 -16.961000442504883 0 -1
115.4000015258789 85.5999984741211 -14.934000015258789 0 -1
115.30000305175781 86.9000015258789 -14.847000122070312 0 -1
118.0999984741211 83.80000305175781 -13.597999572753906 0 -1
112 91.0999984741211 -15.951000213623047 0 -1
113.9000015258789 78.9000015258789 -13.6850004196167 0 -1
114.5999984741211 88 -14.869999885559082 0 -1
116.30000305175781 84.5 -14.23900032043457 0 -1
122.69999694824219 76.0999984741211 -12.701000213623047 0 -1
120 85.5 -13.722000122070312 0 -1
120.0999984741211 86.80000305175781 -13.432999610900879 0 -1
117.19999694824219 81.80000305175781 -12.979000091552734 0 -1
111.4000015258789 75.5 -14.769000053405762 0 -1
114.9000015258789 87.4000015258789 -14.885000228881836 0 -1
114.0999984741211 84.19999694824219 -14.767999649047852 0 -1
118.80000305175781 85.0999984741211 -13.631999969482422 0 -1
112.19999694824219 75.4000015258789 -14.609999656677246 0 -1
120.69999694824219 86.5 -13.942999839782715 0 -1
115.69999694824219 77.80000305175781 -12.77299976348877 0 -1
119.9000015258789 76.19999694824219 -12.515000343322754 0 -1
118.19999694824219 79.80000305175781 -13.541000366210938 0 -1
110.80000305175781 81.5 -12.815999984741211 0 -1
113.4000015258789 79.0999984741211 -14.795000076293945 0 -1
117.80000305175781 82.0999984741211 -13.994000434875488 0 -1
120.80000305175781 77 -12.256999969482422 0 -1
114.69999694824219 88.0999984741211 -14.993000030517578 0 -1
112 81.9000015258789 -14.732000350952148 0 -1
115.80000305175781 75.30000305175781 -13.531999588012695 0 -1
116.5999984741211 76.19999694824219 -13.75 0 -1
114.30000305175781 81.30000305175781 -14.505000114440918 0 -1
121.19999694824219 89.5999984741211 -8.71399974822998 1 -1
113.80000305175781 75.9000015258789 -15.640999794006348 0 -1
116.80000305175781 75.5 -13.402999877929688 0 -1
118.69999694824219 78.5999984741211 -13.550000190734863 0 -1
120.5999984741211 76.19999694824219 -12.336999893188477 0 -1
116.0999984741211 79.69999694824219 -12.994000434875488 0 -1
123 79.0999984741211 -14.293000221252441 0 -1
115.5 90.30000305175781 -15.508000373840332 0 -1
121.80000305175781 84.4000015258789 -13.9350004196167 0 -1
118.5 77.80000305175781 -12.996000289916992 0 -1
121.0999984741211 88.19999694824219 8.116000175476074 2 -1
112.30000305175781 83.80000305175781 -14.354999542236328 0 -1
116.19999694824219 80.19999694824219 -12.001999855041504 0 -1
118.80000305175781 85 -13.713000297546387 0 -1
116.5 81.9000015258789 -13.13700008392334 0 -1
115.5 74.9000015258789 -13.902000427246094 0 -1
119.30000305175781 86 -13.65999984741211 0 -1
116.9000015258789 88.5 -15.293999671936035 0 -1
119.19999694824219 90.30000305175781 -14.241000175476074 1 -1
119.5999984741211 77.0999984741211 -12.871000289916992 0 -1
116.5999984741211 93.5999984741211 -14.83899974822998 0 -1
114 89.4000015258789 -15.399999618530273 0 -1
119.5 82.0999984741211 -14.104000091552734 0 -1
112.19999694824219 75.5 -14.331000328063965 0 -1
115.9000015258789 80.80000305175781 -11.668000221252441 0 -1
121.5999984741211 87.80000305175781 -10.513999938964844 1 -1
120.19999694824219 76.30000305175781 -12.484999656677246 0 -1
110.4000015258789 78.4000015258789 -12.937000274658203 0 -1
122.0999984741211 81.5999984741211 -14.822999954223633 0 -1
122.19999694824219 77.30000305175781 -12.829000473022461 0 -1
112 81.80000305175781 -14.690999984741211 0 -1
114.30000305175781 81.4000015258789 -14.503000259399414 0 -1
115 81.69999694824219 -13.70199966430664 0 -1
121.30000305175781 84.80000305175781 -13.968000411987305 0 -1
119.9000015258789 93.5999984741211 -14.192000389099121 0 -1
112.80000305175781 79.4000015258789 -14.788000106811523 0 -1
113.19999694824219 92.5999984741211 -14.920999526977539 0 -1
118.4000015258789 89 -14.970000267028809 0 -1
113.0999984741211 86.5999984741211 -15.553999900817871 0 -1
111.69999694824219 80.69999694824219 -13.869999885559082 0 -1
111.80000305175781 89 -17.347000122070312 0 -1
118.5999984741211 89.30000305175781 -14.979000091552734 0 -1
113.80000305175781 87.0999984741211 -15.63700008392334 0 -1
122.5999984741211 81.0999984741211 -14.324000358581543 0 -1
110.30000305175781 74.5999984741211 -11.720000267028809 0 -1
113.5999984741211 89.9000015258789 -15.618000030517578 0 -1
117.5 88.5999984741211 -15.038000106811523 0 -1
112.5 88.5999984741211 -16.507999420166016 0 -1
121.19999694824219 89.69999694824219 -9.0600004196167 1 -1
119.4000015258789 81.4000015258789 -14.383999824523926 0 -1
119.69999694824219 79.9000015258789 -13.664999961853027 0 -1
112.69999694824219 90.9000015258789 -15.621999740600586 0 -1
110.5 74.0999984741211 4.361000061035156 3 -1
110.69999694824219 85.4000015258789 -15.826000213623047 0 -1
111.4000015258789 75.30000305175781 -12.253000259399414 0 -1
114.9000015258789 87.19999694824219 -14.994999885559082 0 -1
114.80000305175781 85.9000015258789 -14.973999977111816 0 -1
119.5999984741211 92.5 -13.829000473022461 1 -1
116.4000015258789 86.69999694824219 -14.739999771118164 0 -1
120.9000015258789 80.80000305175781 -14.329000473022461 0 -1
115.69999694824219 77.5999984741211 -12.77299976348877 0 -1
120.0999984741211 89.30000305175781 -13.803999900817871 1 -1
112.5999984741211 86.19999694824219 -15.918000221252441 0 -1
112.0999984741211 78.80000305175781 -14.586000442504883 0 -1
118 84.80000305175781 -13.930999755859375 0 -1
117.69999694824219 80.5 -13.019000053405762 0 -1
114.30000305175781 82.4000015258789 -14.218000411987305 0 -1
116 91.69999694824219 -14.98900032043457 0 -1
116.5 81.80000305175781 -12.317999839782715 0 -1
116.0999984741211 95 -13.555999755859375 0 -1
118.30000305175781 93.80000305175781 -13.91100025177002 0 -1
121 77.5 -12.96399974822998 0 -1
113.69999694824219 81.69999694824219 -14.54800033569336 0 -1
121.0999984741211 87.0999984741211 -13.690999984741211 0 -1
121.4000015258789 94.9000015258789 -12.149999618530273 0 -1
118.69999694824219 78.80000305175781 -13.550000190734863 0 -1
121 92.9000015258789 -14.513999938964844 0 -1
123 78.9000015258789 -12.744000434875488 0 -1
113.4000015258789 94.4000015258789 -12.932999610900879 0 -1
113 81.19999694824219 -14.666000366210938 0 -1
117.30000305175781 91.4000015258789 -15.91100025177002 0 -1
116.69999694824219 94.9000015258789 -13.699999809265137 0 -1
113.69999694824219 82.69999694824219 -13.887999534606934 0 -1
120.19999694824219 77.30000305175781 -12.04699993133545 0 -1
117.5 88.69999694824219 -15.256999969482422 0 -1
112.5 88.69999694824219 -16.58300018310547 0 -1
119.4000015258789 81.30000305175781 -14.522000312805176 0 -1
117 83.5999984741211 -13.576000213623047 0 -1
119 83.30000305175781 -14.375 0 -1
122.80000305175781 83.30000305175781 -13.8100004196167 0 -1
118.5 77.5999984741211 -13.460000038146973 0 -1
114.0999984741211 79 -13.904999732971191 0 -1
121.5999984741211 87.69999694824219 -10.734000205993652 1 -1
110.69999694824219 85.5 -15.876999855041504 0 -1
114.0999984741211 84.0999984741211 -14.704000473022461 0 -1
119.30000305175781 85.9000015258789 -13.64799976348877 0 -1
121.9000015258789 78.69999694824219 -13.755000114440918 0 -1
119.0999984741211 94.0999984741211 -13.904000282287598 0 -1
113.19999694824219 76.4000015258789 -14.84000015258789 0 -1
114.5 82.69999694824219 -14.324000358581543 0 -1
120.69999694824219 87.5999984741211 -12.857999801635742 1 -1
110.5999984741211 79.30000305175781 -12.968999862670898 0 -1
120.5999984741211 90.69999694824219 -9.86299991607666 1 -1
118.0999984741211 83.9000015258789 -13.6899995803833 0 -1
116.30000305175781 84.5999984741211 -14.288999557495117 0 -1
114.0999984741211 79.19999694824219 -13.795999526977539 0 -1
118.4000015258789 88.9000015258789 -14.991999626159668 0 -1
121.69999694824219 88.80000305175781 -8.505000114440918 1 -1
116.80000305175781 75.30000305175781 -13.513999938964844 0 -1
111 82.30000305175781 -14.321999549865723 0 -1
117.4000015258789 87.5999984741211 -15.04699993133545 0 -1
122 95 4.309000015258789 3 -1
118.19999694824219 79.69999694824219 -13.510000228881836 0 -1
113.9000015258789 84.4000015258789 -14.987000465393066 0 -1
122.4000015258789 79.30000305175781 -13.649999618530273 0 -1
118 84.9000015258789 -14.29800033569336 0 -1
117.19999694824219 81.9000015258789 -12.744000434875488 0 -1
121.4000015258789 79.5 -13.821000099182129 0 -1
118.30000305175781 93.69999694824219 -14.560999870300293 0 -1
121.30000305175781 84.0999984741211 -14.170000076293945 0 -1
122.30000305175781 82.5999984741211 -14.550999641418457 0 -1
115.5999984741211 87.9000015258789 -14.98900032043457 0 -1
118.5999984741211 89.0999984741211 -14.899999618530273 0 -1
113.5 85.5999984741211 -15.593000411987305 0 -1
119.0999984741211 76.69999694824219 -12.329000473022461 0 -1
114.80000305175781 86 -14.989999771118164 0 -1
113.80000305175781 75.80000305175781 -15.083000183105469 0 -1
116.69999694824219 79.5999984741211 -12.461999893188477 0 -1
115 81.9000015258789 -13.871000289916992 0 -1
112.4000015258789 89 -16.816999435424805 0 -1
119.9000015258789 75.80000305175781 -12.644000053405762 0 -1
118.80000305175781 85.19999694824219 -13.72599983215332 0 -1
113.4000015258789 78.5999984741211 -14.48900032043457 0 -1
120 82.5 -13.887999534606934 0 -1
121.4000015258789 79.19999694824219 -13.897000312805176 0 -1
117.5999984741211 84.80000305175781 -14.104999542236328 0 -1
119.80000305175781 90.69999694824219 -13.993000030517578 1 -1
116 91.9000015258789 -14.579000473022461 0 -1
119.5999984741211 77.30000305175781 -12.892999649047852 0 -1
115.5 90.19999694824219 -15.48799991607666 0 -1
118.30000305175781 76.4000015258789 -12.807999610900879 0 -1
110.80000305175781 81.5999984741211 -12.95300006866455 0 -1
111 82.19999694824219 -14.58899974822998 0 -1
119.80000305175781 90.80000305175781 -13.906999588012695 1 -1
114.69999694824219 88.5 -14.913000106811523 0 -1
119.19999694824219 90.19999694824219 -14.178000450134277 1 -1
119.69999694824219 80.0999984741211 -13.76200008392334 0 -1
115.80000305175781 88.5 -15.138999938964844 0 -1
122 76.4000015258789 -12.460000038146973 0 -1
118.30000305175781 76.30000305175781 -12.571999549865723 0 -1
114.30000305175781 80.9000015258789 -14.46500015258789 0 -1
122.19999694824219 77.0999984741211 -12.503000259399414 0 -1
113.80000305175781 87.5 -15.647000312805176 0 -1
115.5 74.80000305175781 -13.920000076293945 0 -1
117.5 89 -15.204999923706055 0 -1
118.9000015258789 77.9000015258789 -12.845999717712402 0 -1
121.0999984741211 88 12.939000129699707 2 -1
112.69999694824219 91.30000305175781 -15.310999870300293 0 -1
118.19999694824219 95 -12.831000328063965 0 -1
111.30000305175781 79.19999694824219 -13.892000198364258 0 -1
120.30000305175781 91.5999984741211 -13.680000305175781 1 -1
113.5999984741211 90 -15.901000022888184 0 -1
122 76.30000305175781 -13.331000328063965 0 -1
120.4000015258789 80.5999984741211 -14.305999755859375 0 -1
120.5 85.30000305175781 -13.70199966430664 0 -1
110.9000015258789 87.0999984741211 -16.974000930786133 0 -1
117.0999984741211 86.80000305175781 -14.543000221252441 0 -1
111.80000305175781 88.9000015258789 -17.441999435424805 0 -1
118.5999984741211 89.19999694824219 -14.935999870300293 0 -1
122.5 77.5 -12.914999961853027 0 -1
117.9000015258789 86.69999694824219 -14.35200023651123 0 -1
120.9000015258789 79.9000015258789 -13.76200008392334 0 -1
117.4000015258789 88 -15.07800006866455 0 -1
114.5999984741211 86.0999984741211 -14.982999801635742 0 -1
116.80000305175781 90.69999694824219 -15.866999626159668 0 -1
110.4000015258789 78.30000305175781 -12.991999626159668 0 -1
114.80000305175781 85.80000305175781 -14.977999687194824 0 -1
117.69999694824219 80.80000305175781 -13.079999923706055 0 -1
116.4000015258789 86.5999984741211 -14.763999938964844 0 -1
112.0999984741211 78.5999984741211 -14.916999816894531 0 -1
112 91 -15.890000343322754 0 -1
116.69999694824219 79.4000015258789 -12.461999893188477 0 -1
117 83.80000305175781 -13.576000213623047 0 -1
114.30000305175781 81 -14.470999717712402 0 -1
113.4000015258789 78.69999694824219 -14.616999626159668 0 -1
110.5 74 5.584000110626221 3 -1
115.19999694824219 83.9000015258789 -14.194000244140625 0 -1
115.4000015258789 85.69999694824219 -14.947999954223633 0 -1
118.5 93 -14.638999938964844 0 -1
121.19999694824219 89.5 -8.805999755859375 1 -1
111.69999694824219 80.80000305175781 -13.932999610900879 0 -1
114.0999984741211 84.30000305175781 -14.769000053405762 0 -1
120.80000305175781 88.0999984741211 11.333999633789062 2 -1
120.0999984741211 89.19999694824219 -13.746000289916992 1 -1
112.5999984741211 86.30000305175781 -15.890999794006348 0 -1
111.30000305175781 79 -13.949000358581543 0 -1
114.69999694824219 88.4000015258789 -14.965999603271484 0 -1
116.5999984741211 93.5 -14.78600025177002 0 -1
117.30000305175781 91.30000305175781 -15.998000144958496 0 -1
119.69999694824219 80 -13.574999809265137 0 -1
113.19999694824219 76.30000305175781 -15.027000427246094 0 -1
114.5 82.80000305175781 -14.331000328063965 0 -1
115.30000305175781 87 -14.803999900817871 0 -1
117.80000305175781 82 -13.722000122070312 0 -1
113.69999694824219 81.5999984741211 -14.567000389099121 0 -1
117.0999984741211 86.9000015258789 -14.515000343322754 0 -1
120.19999694824219 77.19999694824219 -12.223999977111816 0 -1
115.0999984741211 86.19999694824219 -15.340999603271484 0 -1
115.9000015258789 83 -13.402999877929688 0 -1
122.80000305175781 83.19999694824219 -13.767999649047852 0 -1
118.9000015258789 78 -12.91100025177002 0 -1
111.19999694824219 82.5 -14.586999893188477 0 -1
116.9000015258789 88.0999984741211 -15.460000038146973 0 -1
113.30000305175781 81.19999694824219 -14.685999870300293 0 -1
112.0999984741211 78.69999694824219 -14.845999717712402 0 -1
113.69999694824219 82.5999984741211 -13.961000442504883 0 -1
121 77.0999984741211 -12.229999542236328 0 -1
116.30000305175781 84.69999694824219 -14.270999908447266 0 -1
119 83.4000015258789 -14.32699966430664 0 -1
122.69999694824219 76.30000305175781 -12.706000328063965 0 -1
122.30000305175781 82.30000305175781 -14.718000411987305 0 -1
121.5999984741211 87.4000015258789 -10.718999862670898 1 -1
112.30000305175781 83.9000015258789 -14.404999732971191 0 -1
121.9000015258789 78.5999984741211 -13.78600025177002 0 -1
119.0999984741211 94 -14.501999855041504 0 -1
121.80000305175781 84.5 -13.954000473022461 0 -1
112.5 88.80000305175781 -16.459999084472656 0 -1
122.0999984741211 81.5 -14.831000328063965 0 -1
118.19999694824219 79.5999984741211 -13.541000366210938 0 -1
115.30000305175781 87.0999984741211 -14.788000106811523 0 -1
115.19999694824219 82 -13.855999946594238 0 -1
115.69999694824219 93 -14.335000038146973 0 -1
112 90.9000015258789 -16.7450008392334 0 -1
118.5 77.5 -12.972000122070312 0 -1
115.0999984741211 87.9000015258789 -14.95199966430664 0 -1
117.9000015258789 86.9000015258789 -14.397000312805176 0 -1
118.0999984741211 83.5 -13.706999778747559 0 -1
112.4000015258789 88.69999694824219 -16.655000686645508 0 -1
110.69999694824219 85 -15.704999923706055 0 -1
111.4000015258789 75.69999694824219 -14.907999992370605 0 -1
113.5 85.69999694824219 -15.668000221252441 0 -1
119.5 82 -14.21399974822998 0 -1
116.80000305175781 75.69999694824219 -13.70300006866455 0 -1
120 82.5999984741211 -13.8149995803833 0 -1
119.5999984741211 92.5999984741211 -13.86400032043457 1 -1
114.9000015258789 87.0999984741211 -14.906000137329102 0 -1
115 81.80000305175781 -13.625 0 -1
120.30000305175781 91.4000015258789 -13.602999687194824 1 -1
119.0999984741211 76.5999984741211 -12.230999946594238 0 -1
114 89.30000305175781 -15.456999778747559 0 -1
119.9000015258789 75.9000015258789 -12.633000373840332 0 -1
123 79.80000305175781 -13.975000381469727 0 -1
118.5 92.80000305175781 -15.128999710083008 0 -1
118.30000305175781 94.19999694824219 -13.927000045776367 0 -1
120.4000015258789 80.4000015258789 -14.305999755859375 0 -1
120.5 85.5 -13.800000190734863 0 -1
110.0999984741211 74 5.041999816894531 3 -1
117.19999694824219 81.5 -12.930999755859375 0 -1
121.30000305175781 84.19999694824219 -13.928000450134277 0 -1
116 91.80000305175781 -14.657999992370605 0 -1
116.5 81.69999694824219 -13.038999557495117 0 -1
112 81.69999694824219 -14.618000030517578 0 -1
119.5999984741211 77.19999694824219 -12.491000175476074 0 -1
110.4000015258789 78.0999984741211 -12.994000434875488 0 -1
118.69999694824219 78.4000015258789 -13.336000442504883 0 -1
110.9000015258789 87.5 -16.979000091552734 0 -1
122.69999694824219 93.69999694824219 -15.210000038146973 0 -1
113.80000305175781 87.4000015258789 -15.670999526977539 0 -1
110.80000305175781 81.69999694824219 -12.581999778747559 0 -1
121.80000305175781 84.5999984741211 -13.9350004196167 0 -1
118.19999694824219 94.9000015258789 -12.920000076293945 0 -1
110.5 74.19999694824219 -11.701000213623047 0 -1
121.5999984741211 87.30000305175781 -10.494999885559082 1 -1
117.5999984741211 84.69999694824219 -13.914999961853027 0 -1
112.4000015258789 88.5999984741211 -16.65399932861328 0 -1
110.69999694824219 85.0999984741211 -15.791999816894531 0 -1
112.19999694824219 80.30000305175781 -14.689000129699707 0 -1
117.80000305175781 90 -15.579000473022461 0 -1
116.5999984741211 76.0999984741211 -13.888999938964844 0 -1
119.69999694824219 80.19999694824219 -13.814000129699707 0 -1
119.5999984741211 76.9000015258789 -12.420000076293945 0 -1
112.69999694824219 91.19999694824219 -15.510000228881836 0 -1
118 87.0999984741211 -14.414999961853027 0 -1
121.69999694824219 88.4000015258789 -8.553000450134277 1 -1
117.9000015258789 86.80000305175781 -14.359999656677246 0 -1
120.30000305175781 91.5 -13.552000045776367 1 -1
113.5999984741211 90.0999984741211 -15.78499984741211 0 -1
119.4000015258789 81.19999694824219 -14.357000350952148 0 -1
119.19999694824219 90.5999984741211 -14.364999771118164 1 -1
113.9000015258789 79.30000305175781 -13.854999542236328 0 -1
118.5 92.9000015258789 -14.833999633789062 0 -1
116.69999694824219 94.80000305175781 -13.772000312805176 0 -1
114.30000305175781 82 -13.954999923706055 0 -1
122.19999694824219 77.5 -12.829000473022461 0 -1
120.69999694824219 87.69999694824219 -12.406000137329102 1 -1
122.0999984741211 81.30000305175781 -14.831000328063965 0 -1
114.0999984741211 79.30000305175781 -13.722000122070312 0 -1
122.4000015258789 79.4000015258789 -14.319000244140625 0 -1
114.5999984741211 86.19999694824219 -14.989999771118164 0 -1
115.5999984741211 84.19999694824219 -14.1899995803833 0 -1
118.4000015258789 88.80000305175781 -14.970000267028809 0 -1
110.0999984741211 74.0999984741211 4.933000087738037 3 -1
118.30000305175781 94.0999984741211 -13.944000244140625 0 -1
121.19999694824219 89.4000015258789 -8.71399974822998 1 -1
111.69999694824219 80.9000015258789 -13.8149995803833 0 -1
114 89.0999984741211 -15.526000022888184 0 -1
119.30000305175781 85.80000305175781 -13.65999984741211 0 -1
116.9000015258789 88.30000305175781 -15.460000038146973 0 -1
113.19999694824219 76.5 -14.795999526977539 0 -1
113.30000305175781 81.4000015258789 -14.692000389099121 0 -1
118.5999984741211 89.5 -14.850000381469727 0 -1
115.69999694824219 76 -13.699999809265137 0 -1
111.30000305175781 79.0999984741211 -13.91100025177002 0 -1
119.0999984741211 93.9000015258789 -13.904000282287598 0 -1
114.5 82.9000015258789 -14.241999626159668 0 -1
116.19999694824219 80.30000305175781 -12.27400016784668 0 -1
116.0999984741211 79.80000305175781 -12.682999610900879 0 -1
116.5999984741211 77.5 -13.319000244140625 0 -1
116.80000305175781 91.0999984741211 -15.76200008392334 0 -1
117.30000305175781 91.19999694824219 -15.975000381469727 0 -1
113.69999694824219 82.5 -14.199000358581543 0 -1
119 83 -13.928000450134277 0 -1
121.69999694824219 88.5 -8.418000221252441 1 -1
110.5999984741211 78.9000015258789 -12.923999786376953 0 -1
120.19999694824219 77.0999984741211 -12.265999794006348 0 -1
119.4000015258789 81.0999984741211 -14.190999984741211 0 -1
117.69999694824219 80.69999694824219 -13.015000343322754 0 -1
122.5999984741211 81.69999694824219 -14.40999984741211 0 -1
121.30000305175781 84 -14.234000205993652 0 -1
117.4000015258789 87.9000015258789 -15.331999778747559 0 -1
119.30000305175781 85.69999694824219 -13.782999992370605 0 -1
114.30000305175781 82.0999984741211 -13.878999710083008 0 -1
113.30000305175781 81.30000305175781 -14.682000160217285 0 -1
118.30000305175781 76.69999694824219 -13.100000381469727 0 -1
121.9000015258789 78 -12.835000038146973 0 -1
122.69999694824219 76.4000015258789 -12.460000038146973 0 -1
120.0999984741211 89.0999984741211 -13.803999900817871 1 -1
112.5 89.4000015258789 -16.736000061035156 0 -1
116.5999984741211 90.80000305175781 -15.645999908447266 0 -1
116.5 80.0999984741211 -11.95300006866455 0 -1
121 77.19999694824219 -12.107000350952148 0 -1
111 82.0999984741211 -14.61299991607666 0 -1
113.5999984741211 89.5999984741211 -15.934000015258789 0 -1
113.80000305175781 76.0999984741211 -14.869999885559082 0 -1
116.4000015258789 87.5 -15.243000030517578 0 -1
115.80000305175781 88.4000015258789 -15.192000389099121 0 -1
122.30000305175781 82.19999694824219 -14.729999542236328 0 -1
120.5999984741211 90.80000305175781 -9.803999900817871 1 -1
120.9000015258789 80 -13.822999954223633 0 -1
121.5999984741211 87.5 -10.494999885559082 1 -1
121.4000015258789 79.30000305175781 -13.710000038146973 0 -1
113.69999694824219 81.5 -14.54800033569336 0 -1
113.4000015258789 78.80000305175781 -14.616000175476074 0 -1
116.30000305175781 85.30000305175781 -14.583999633789062 0 -1
122.5 77.0999984741211 -12.303000450134277 0 -1
111.19999694824219 82.9000015258789 -13.979999542236328 0 -1
119.80000305175781 90.9000015258789 -13.993000030517578 1 -1
122.0999984741211 81.4000015258789 -14.222000122070312 0 -1
115.5999984741211 84.0999984741211 -14.192000389099121 0 -1
117.9000015258789 87 -14.406000137329102 0 -1
113.5 85.80000305175781 -15.59000015258789 0 -1
115.4000015258789 84.30000305175781 -14.236000061035156 0 -1
112.5999984741211 86.4000015258789 -15.890000343322754 0 -1
112.30000305175781 82 -14.625 0 -1
122 76.19999694824219 -12.460000038146973 0 -1
117.5999984741211 84.5 -13.75 0 -1
110.4000015258789 78.19999694824219 -12.906000137329102 0 -1
122.4000015258789 79.5999984741211 -14.319000244140625 0 -1
120.80000305175781 88.5 8.42300033569336 2 -1
120 82.69999694824219 -14.100000381469727 0 -1
114.80000305175781 82.0999984741211 -13.809000015258789 0 -1
122.30000305175781 82.4000015258789 -14.741000175476074 0 -1
118.0999984741211 83.5999984741211 -13.461999893188477 0 -1
110.80000305175781 81.80000305175781 -12.597000122070312 0 -1
111 82 -13.968999862670898 0 -1
111.30000305175781 78.9000015258789 -13.967000007629395 0 -1
120.30000305175781 91.30000305175781 -13.552000045776367 1 -1
119.0999984741211 76.5 -12.326000213623047 0 -1
114.30000305175781 81.0999984741211 -14.46500015258789 0 -1
120.4000015258789 80.5 -14.420999526977539 0 -1
120.5 85.4000015258789 -13.675000190734863 0 -1
114.69999694824219 87.80000305175781 -14.82800006866455 0 -1
116.5 80 -11.767000198364258 0 -1
113.80000305175781 87.30000305175781 -15.651000022888184 0 -1
118.19999694824219 79.5 -13.510000228881836 0 -1
112.4000015258789 88.80000305175781 -16.66200065612793 0 -1
117 83.9000015258789 -13.600000381469727 0 -1
119.80000305175781 75.5999984741211 -12.656000137329102 0 -1
122.80000305175781 83.5999984741211 -13.788000106811523 0 -1
118.19999694824219 94.80000305175781 -12.831000328063965 0 -1
110.9000015258789 87.4000015258789 -16.961999893188477 0 -1
117.5999984741211 84.5999984741211 -13.845999717712402 0 -1
114.9000015258789 89 -14.927000045776367 0 -1
120.5 85.0999984741211 -13.70199966430664 0 -1
115.0999984741211 88 -14.539999961853027 0 -1
117.0999984741211 87 -14.456999778747559 0 -1
119.80000305175781 91 -13.930999755859375 1 -1
116.69999694824219 78.30000305175781 -12.319999694824219 0 -1
111.80000305175781 83.0999984741211 -14.28499984741211 0 -1
119.5999984741211 76.80000305175781 -12.444000244140625 0 -1
113.9000015258789 84.30000305175781 -14.918000221252441 0 -1
122.5 77.30000305175781 -12.776000022888184 0 -1
115.4000015258789 84.4000015258789 -14.3100004196167 0 -1
118.5 92.69999694824219 -15.541000366210938 0 -1
117.19999694824219 81.5999984741211 -12.958999633789062 0 -1
114.0999984741211 84.4000015258789 -14.838000297546387 0 -1
115.9000015258789 83.0999984741211 -13.394000053405762 0 -1
117.80000305175781 90.0999984741211 -15.640999794006348 0 -1
116.80000305175781 90.9000015258789 -15.769000053405762 0 -1
115.30000305175781 87.19999694824219 -14.741999626159668 0 -1
118.9000015258789 78.0999984741211 -13.302000045776367 0 -1
119.9000015258789 76 -12.644000053405762 0 -1
116 90.4000015258789 -14.963000297546387 0 -1
110.5999984741211 79.0999984741211 -12.968999862670898 0 -1
113.9000015258789 79.19999694824219 -13.904999732971191 0 -1
122 76.0999984741211 -13.125 0 -1
122.5999984741211 81.9000015258789 -14.428000450134277 0 -1
119.9000015258789 93.4000015258789 -14.361000061035156 0 -1
118.5999984741211 89.4000015258789 -14.892999649047852 0 -1
122.0999984741211 81.19999694824219 -14.836999893188477 0 -1
113.80000305175781 92.9000015258789 -14.942000389099121 0 -1
114.19999694824219 79.69999694824219 -13.559000015258789 0 -1
119.19999694824219 90.5 -14.241000175476074 1 -1
118.80000305175781 85.30000305175781 -13.678000450134277 0 -1
114.5999984741211 86.30000305175781 -14.982999801635742 0 -1
116.0999984741211 79.9000015258789 -12.527000427246094 0 -1
114.69999694824219 87.69999694824219 -14.946999549865723 0 -1
116.9000015258789 88.19999694824219 -15.420999526977539 0 -1
118 87.19999694824219 -14.423999786376953 0 -1
119.0999984741211 93.80000305175781 -14.630999565124512 0 -1
119.80000305175781 75.69999694824219 -12.625 0 -1
118.4000015258789 88.69999694824219 -15.069999694824219 0 -1
114.4000015258789 78.9000015258789 -12.67300033569336 0 -1
115.9000015258789 83.30000305175781 -13.527000427246094 0 -1
120.19999694824219 77 -12.223999977111816 0 -1
120.5999984741211 91 -9.890999794006348 1 -1
120.4000015258789 80.80000305175781 -14.27400016784668 0 -1
111.4000015258789 75.5999984741211 -12.517000198364258 0 -1
111.69999694824219 81 -13.847000122070312 0 -1
111.19999694824219 82.69999694824219 -14.309000015258789 0 -1
116.80000305175781 75.5999984741211 -13.508999824523926 0 -1
116 77.0999984741211 -12.380000114440918 0 -1
117.5 88.9000015258789 -15.204000473022461 0 -1
119 83.0999984741211 -13.982999801635742 0 -1
113.30000305175781 81 -14.718000411987305 0 -1
122.5 77.19999694824219 -12.727999687194824 0 -1
114 89.19999694824219 -15.376999855041504 0 -1
122.69999694824219 76.5 -12.866000175476074 0 -1
122.5999984741211 81.80000305175781 -14.378999710083008 0 -1
111.5 84.80000305175781 -14.906000137329102 0 -1
115.80000305175781 88.19999694824219 -15.04699993133545 0 -1
115.69999694824219 75.80000305175781 -13.73799991607666 0 -1
112 91.30000305175781 -15.951000213623047 0 -1
117.69999694824219 80 -13.529999732971191 0 -1
121.9000015258789 77.9000015258789 -12.92199993133545 0 -1
116.4000015258789 87.4000015258789 -15.324000358581543 0 -1
120.9000015258789 80.0999984741211 -13.717000007629395 0 -1
110.4000015258789 78 -12.892000198364258 0 -1
118.69999694824219 78.5 -13.550000190734863 0 -1
118.9000015258789 78.19999694824219 -12.91100025177002 0 -1
114.0999984741211 85.5999984741211 -15.501999855041504 0 -1
119.5 82.4000015258789 -13.968000411987305 0 -1
116.30000305175781 85.4000015258789 -14.560999870300293 0 -1
112.69999694824219 91.5999984741211 -14.958999633789062 0 -1
121 77.30000305175781 -12.255000114440918 0 -1
113.5999984741211 89.69999694824219 -15.987000465393066 0 -1
111.19999694824219 82.80000305175781 -14.366000175476074 0 -1
116.19999694824219 79.4000015258789 -12.963000297546387 0 -1
119.5999984741211 77 -12.491000175476074 0 -1
113.30000305175781 80.9000015258789 -14.602999687194824 0 -1
118.4000015258789 88.5999984741211 -15.005000114440918 0 -1
113.5 85.9000015258789 -15.652999877929688 0 -1
110.69999694824219 85.19999694824219 -15.91100025177002 0 -1
119.5 82.19999694824219 -14.15999984741211 0 -1
117.30000305175781 92.0999984741211 -15.640000343322754 0 -1
111.5999984741211 87.30000305175781 -16.979000091552734 0 -1
117.80000305175781 89.9000015258789 -15 0 -1
121.80000305175781 84.69999694824219 -14.534000396728516 0 -1
120.0999984741211 89.5 -14.319000244140625 1 -1
120 82.80000305175781 -14.095000267028809 0 -1
116 90.5999984741211 -14.87399959564209 0 -1
110.5 75.30000305175781 -12.236000061035156 0 -1
121 76.80000305175781 -12.46399974822998 0 -1
112.5999984741211 86.5 -15.831000328063965 0 -1
117.5999984741211 84.4000015258789 -13.812000274658203 0 -1
113.9000015258789 78.5 -13.810999870300293 0 -1
122.19999694824219 77.4000015258789 -12.706000328063965 0 -1
113.19999694824219 76.5999984741211 -14.84000015258789 0 -1
114.5 82.5 -14.234000205993652 0 -1
116.69999694824219 78.0999984741211 -12.942999839782715 0 -1
118.0999984741211 83.69999694824219 -13.529999732971191 0 -1
115.69999694824219 75.9000015258789 -13.763999938964844 0 -1
116.9000015258789 88.9000015258789 -15.156999588012695 0 -1
112 91.19999694824219 -15.770000457763672 0 -1
118.80000305175781 85.5 -13.689000129699707 0 -1
122.4000015258789 94.9000015258789 -11.267999649047852 3 -1
110.9000015258789 87.30000305175781 -16.93899917602539 0 -1
114 89 -15.468999862670898 0 -1
119.9000015258789 76.5999984741211 -12.425999641418457 0 -1
119.5999984741211 92.4000015258789 -13.86400032043457 1 -1
122.69999694824219 93.9000015258789 -15.126999855041504 0 -1
111.5999984741211 87.4000015258789 -16.895000457763672 0 -1
118.19999694824219 79.4000015258789 -13.336999893188477 0 -1
121.69999694824219 88.0999984741211 -10.288999557495117 1 -1
110.80000305175781 81.9000015258789 -12.581999778747559 0 -1
119.0999984741211 76.4000015258789 -12.230999946594238 0 -1
122.4000015258789 79.5 -13.1850004196167 0 -1
118.30000305175781 94 -13.899999618530273 0 -1
121.30000305175781 84.4000015258789 -13.928000450134277 0 -1
116.80000305175781 91 -15.831000328063965 0 -1
116 77.30000305175781 -12.336000442504883 0 -1
111.80000305175781 83 -14.607999801635742 0 -1
110.30000305175781 74.19999694824219 -11.50100040435791 0 -1
118.0999984741211 83.19999694824219 -13.65999984741211 0 -1
118.69999694824219 78.19999694824219 -13.66100025177002 0 -1
115.19999694824219 82.0999984741211 -13.855999946594238 0 -1
117.5 88.19999694824219 -15.067999839782715 0 -1
112.5999984741211 89.5999984741211 -16.66699981689453 0 -1
119.4000015258789 81 -14.140999794006348 0 -1
120.5 85 -13.87399959564209 0 -1
117.9000015258789 86.0999984741211 -14.282999992370605 0 -1
122.19999694824219 95 3.7890000343322754 3 -1
118.5 77.4000015258789 -13.36299991607666 0 -1
120.69999694824219 87.9000015258789 -14.220999717712402 0 -1
118.5 92.5999984741211 -15.614999771118164 0 -1
110.5999984741211 79 -12.972999572753906 0 -1
121.4000015258789 78.9000015258789 -13.70199966430664 0 -1
123 79.69999694824219 -13.875 0 -1
118.80000305175781 85.4000015258789 -13.670000076293945 0 -1
113.4000015258789 78.4000015258789 -14.48900032043457 0 -1
112.5 89.5 -16.7189998626709 0 -1
119.30000305175781 85.5999984741211 -13.751999855041504 0 -1
118.30000305175781 76.5999984741211 -12.807999610900879 0 -1
118.30000305175781 93.4000015258789 -14.503000259399414 0 -1
112.4000015258789 87.4000015258789 -16.825000762939453 0 -1
113.80000305175781 92.80000305175781 -14.979000091552734 0 -1
119.19999694824219 90.4000015258789 -14.178000450134277 1 -1
115.4000015258789 84 -14.199000358581543 0 -1
117.19999694824219 81.19999694824219 -12.791000366210938 0 -1
117 83 -13.42199993133545 0 -1
118.19999694824219 94.69999694824219 -12.873000144958496 0 -1
