VERSION .7
FIELDS x y z label object
SIZE 4 4 4 4 4
TYPE F F F I I
COUNT 1 1 1 1 1
WIDTH 870
HEIGHT 1
POINTS 870
VIEWPOINT 0 0 0 1 0 0 0
DATA ascii
116.19999694824219 88.4000015258789 -15.967000007629395 0 -1
112.30000305175781 75.5999984741211 -13.54699993133545 0 -1
115.0999984741211 75.9000015258789 -13.187000274658203 0 -1
119.30000305175781 76.69999694824219 -13.03499984741211 0 -1
121.19999694824219 79.4000015258789 -13.756999969482422 0 -1
116.5 87.5999984741211 -15.26099967956543 0 -1
119.30000305175781 94.19999694824219 -14.093000411987305 0 -1
112.5999984741211 81 -14.86299991607666 0 -1
112.5 80.4000015258789 -14.678999900817871 0 -1
114.5999984741211 78.80000305175781 -12.522000312805176 0 -1
116.30000305175781 93.69999694824219 -13.892999649047852 0 -1
113.5999984741211 78.5999984741211 -14.878000259399414 0 -1
121.5999984741211 79.5999984741211 -13.645000457763672 0 -1
117.0999984741211 79.5 -12.9350004196167 0 -1
118.80000305175781 75.9000015258789 -12.506999969482422 0 -1
122.4000015258789 85.30000305175781 -14.850000381469727 0 -1
114.9000015258789 79 -11.866999626159668 0 -1
112.9000015258789 77.5999984741211 -14.744999885559082 0 -1
117.9000015258789 79.4000015258789 -13.293999671936035 0 -1
115 89.9000015258789 -15.361000061035156 0 -1
114.4000015258789 87.80000305175781 -16.940000534057617 0 -1
113.19999694824219 84.4000015258789 -14.90999984741211 0 -1
118.80000305175781 93.19999694824219 -15.92199993133545 0 -1
118.9000015258789 87 -14.071000099182129 0 -1
110.19999694824219 77.4000015258789 -11.881999969482422 0 -1
116.5 88 -15.309000015258789 0 -1
120.5 76.0999984741211 -12.47700023651123 0 -1
119.30000305175781 94.0999984741211 -14.001999855041504 0 -1
114.80000305175781 77.69999694824219 -13.675999641418457 0 -1
117.30000305175781 83.19999694824219 -13.315999984741211 0 -1
119.69999694824219 89.0999984741211 -14.812000274658203 0 -1
115.5999984741211 79.80000305175781 -13.645999908447266 0 -1
122.5 87.5999984741211 -15.395000457763672 0 -1
112.5 80.5 -14.645999908447266 0 -1
115.0999984741211 75.80000305175781 -13.333999633789062 0 -1
120.0999984741211 80.0999984741211 -13.45199966430664 0 -1
121 85.69999694824219 -14.458000183105469 0 -1
118.30000305175781 85.5999984741211 -14.006999969482422 0 -1
117.0999984741211 79.5999984741211 -12.869000434875488 0 -1
118.80000305175781 75.80000305175781 -12.484999656677246 0 -1
111.0999984741211 78.0999984741211 -13.963000297546387 0 -1
113.5 74.30000305175781 -14.23799991607666 0 -1
116 82.5 -13.25 0 -1
117.5 81.5 -13.104000091552734 0 -1
119.4000015258789 88.5 -14.774999618530273 0 -1
118.9000015258789 87.0999984741211 -13.788999557495117 0 -1
111.80000305175781 74.69999694824219 -12.88599967956543 0 -1
114.80000305175781 77.80000305175781 -13.61299991607666 0 -1
115.69999694824219 88 -15.883000373840332 0 -1
117 91.80000305175781 -15.854000091552734 0 -1
121.0999984741211 81 -14.725000381469727 0 -1
115.19999694824219 91.0999984741211 -15.928999900817871 0 -1
115 90.0999984741211 -15.361000061035156 0 -1
121.5999984741211 79.5 -14.406000137329102 0 -1
118.5999984741211 79.9000015258789 -13.39900016784668 0 -1
122.5999984741211 83 -13.657999992370605 0 -1
110 75 -11.876999855041504 0 -1
118.0999984741211 92.0999984741211 -16.736000061035156 0 -1
116.9000015258789 81.30000305175781 -12.567999839782715 0 -1
113.0999984741211 85.4000015258789 -16.249000549316406 0 -1
122.30000305175781 80.4000015258789 -14.359000205993652 0 -1
117.4000015258789 78.80000305175781 -12.913999557495117 0 -1
117 92 -15.904999732971191 0 -1
116.4000015258789 80.5999984741211 -12.031000137329102 0 -1
117.5999984741211 77.5 -12.904999732971191 0 -1
112.69999694824219 80.0999984741211 -14.527000427246094 0 -1
123 85.19999694824219 -14.63700008392334 0 -1
111.0999984741211 78.19999694824219 -13.956000328063965 0 -1
111.5 76.19999694824219 -14.166000366210938 0 -1
122.19999694824219 85.30000305175781 -14.812999725341797 0 -1
117.9000015258789 79.5999984741211 -13.406999588012695 0 -1
118.80000305175781 93.4000015258789 -15.92199993133545 0 -1
119.4000015258789 88.4000015258789 -14.710000038146973 0 -1
110.19999694824219 77.19999694824219 -11.881999969482422 0 -1
120 90.69999694824219 -15.913000106811523 0 -1
117.5999984741211 93 -14.883999824523926 0 -1
117.69999694824219 89.69999694824219 -15.286999702453613 0 -1
117.19999694824219 88.5999984741211 -15.126999855041504 0 -1
112.9000015258789 76 -14.369000434875488 0 -1
115.19999694824219 81.69999694824219 -13.258000373840332 0 -1
115.5999984741211 79.69999694824219 -12.416999816894531 0 -1
121.69999694824219 80.5999984741211 -14.793999671936035 0 -1
111.19999694824219 77.4000015258789 -14.717000007629395 0 -1
111.5999984741211 79.4000015258789 -14.644000053405762 0 -1
115.5999984741211 93 -14.545000076293945 0 -1
120 75.30000305175781 -12.53499984741211 0 -1
116.69999694824219 89.80000305175781 -15.682000160217285 0 -1
118.69999694824219 88 -14.458999633789062 0 -1
112 83.9000015258789 -15.892000198364258 0 -1
113.0999984741211 78.30000305175781 -14.940999984741211 0 -1
121.0999984741211 80.9000015258789 -14.562999725341797 0 -1
118.19999694824219 86.80000305175781 -14.104999542236328 0 -1
122.69999694824219 86.4000015258789 -14.755000114440918 0 -1
115.5 89.19999694824219 -14.628000259399414 0 -1
116.5999984741211 82.4000015258789 -13.029999732971191 0 -1
117.69999694824219 90 -15.434000015258789 0 -1
114.69999694824219 80.30000305175781 -13.956000328063965 0 -1
117.5 81.80000305175781 -13.420999526977539 0 -1
117.0999984741211 95 -12.746999740600586 0 -1
120.69999694824219 78.4000015258789 -13.373000144958496 0 -1
116.30000305175781 93.80000305175781 -13.98799991607666 0 -1
118 76.69999694824219 -12.817000389099121 0 -1
110.9000015258789 79.9000015258789 -13.744999885559082 0 -1
114.9000015258789 79.0999984741211 -12.61400032043457 0 -1
117.9000015258789 79.5 -13.366000175476074 0 -1
121.5 84.9000015258789 -14.331999778747559 0 -1
112.5999984741211 81.0999984741211 -14.807999610900879 0 -1
111 77.0999984741211 -14.293000221252441 0 -1
122.5 87.80000305175781 -15.395000457763672 0 -1
113.5999984741211 78.69999694824219 -14.871999740600586 0 -1
110.19999694824219 77.30000305175781 -11.848999977111816 0 -1
111.5 75.9000015258789 -13.937000274658203 0 -1
115.80000305175781 80.30000305175781 -12.565999984741211 0 -1
110.69999694824219 74.19999694824219 -11.6899995803833 0 -1
112 83.80000305175781 -15.842000007629395 0 -1
122.30000305175781 80.5999984741211 -14.338000297546387 0 -1
116.80000305175781 82.5 -12.994999885559082 0 -1
120.80000305175781 83.80000305175781 -13.748000144958496 0 -1
118.4000015258789 81.69999694824219 -14.447999954223633 0 -1
116.9000015258789 81 -12.847000122070312 0 -1
114.80000305175781 77.5999984741211 -15.175999641418457 0 -1
115.30000305175781 76.69999694824219 -14.515000343322754 0 -1
117.5 81.9000015258789 -13.505999565124512 0 -1
122 84.5 -14.324000358581543 0 -1
115.4000015258789 79.5 -12.366999626159668 0 -1
115.0999984741211 76 -13.262999534606934 0 -1
112.4000015258789 79.80000305175781 -14.928999900817871 0 -1
120.69999694824219 78.5 -13.461000442504883 0 -1
122.5 87.69999694824219 -15.397000312805176 0 -1
118.80000305175781 76 -12.47700023651123 0 -1
116.0999984741211 88 -15.468999862670898 0 -1
114.69999694824219 80.19999694824219 -13.182999610900879 0 -1
115.19999694824219 81.9000015258789 -13.633000373840332 0 -1
118.5999984741211 80.30000305175781 -13.020999908447266 0 -1
111 77 -14.210000038146973 0 -1
115.9000015258789 90.19999694824219 -14.684000015258789 0 -1
112.80000305175781 76.19999694824219 -14.70199966430664 0 -1
112.69999694824219 83.0999984741211 -14.472999572753906 0 -1
120.0999984741211 80 -13.53600025177002 0 -1
111.80000305175781 74.5999984741211 -12.782999992370605 0 -1
111.0999984741211 78 -13.956000328063965 0 -1
115 90 -15.336000442504883 0 -1
118.4000015258789 81.5999984741211 -14.38599967956543 0 -1
117.5999984741211 92.80000305175781 -15.760000228881836 0 -1
111.5 75.80000305175781 -13.423999786376953 0 -1
121 85.30000305175781 -14.531999588012695 0 -1
113.0999984741211 85.5 -16.468000411987305 0 -1
113 74.4000015258789 -14.75100040435791 0 -1
118.9000015258789 87.19999694824219 -14.079999923706055 0 -1
120.80000305175781 83.9000015258789 -13.803000450134277 0 -1
121.19999694824219 95 4.085000038146973 3 -1
123 85 -14.63700008392334 0 -1
121.5999984741211 79.19999694824219 -13.654999732971191 0 -1
116.69999694824219 89.5999984741211 -15.300000190734863 0 -1
119.5 90.19999694824219 -15.901000022888184 0 -1
122.5999984741211 83.0999984741211 -13.741999626159668 0 -1
112.30000305175781 75.69999694824219 -13.77299976348877 0 -1
120 90.80000305175781 -15.831000328063965 0 -1
122.4000015258789 85.4000015258789 -14.887999534606934 0 -1
114.9000015258789 78.9000015258789 -12.597999572753906 0 -1
115.4000015258789 79.5999984741211 -12.359999656677246 0 -1
115.19999694824219 81.80000305175781 -13.470999717712402 0 -1
113.0999984741211 78.0999984741211 -14.850000381469727 0 -1
117.9000015258789 79.69999694824219 -13.366000175476074 0 -1
112.69999694824219 80 -14.619000434875488 0 -1
119.30000305175781 76.5999984741211 -12.454000473022461 0 -1
113.5 74.4000015258789 -14.196999549865723 0 -1
110 74.9000015258789 -11.79699993133545 0 -1
116.5 87.9000015258789 -15.281000137329102 0 -1
118.0999984741211 91.69999694824219 -15.748000144958496 0 -1
116.4000015258789 80.5 -12.133999824523926 0 -1
111.19999694824219 77.69999694824219 -14.456000328063965 0 -1
112.5999984741211 81.19999694824219 -14.833000183105469 0 -1
117.19999694824219 88.69999694824219 -15.105999946594238 0 -1
121.0999984741211 81.9000015258789 -14.218999862670898 0 -1
121.80000305175781 76.4000015258789 -12.251999855041504 0 -1
114.4000015258789 87.9000015258789 -16.69700050354004 0 -1
117.30000305175781 83.0999984741211 -13.258999824523926 0 -1
116.5999984741211 82.19999694824219 -12.982000350952148 0 -1
117.5999984741211 92.9000015258789 -14.97700023651123 0 -1
110.9000015258789 80.30000305175781 -14.607999801635742 0 -1
122.69999694824219 86.5 -14.730999946594238 0 -1
119.30000305175781 76.5 -12.425999641418457 0 -1
117.80000305175781 81.80000305175781 -13.555999755859375 0 -1
117.69999694824219 90.0999984741211 -15.687999725341797 0 -1
119.30000305175781 94 -14.093000411987305 0 -1
114.19999694824219 87.0999984741211 -15.956000328063965 0 -1
123 85.0999984741211 -14.579000473022461 0 -1
111.19999694824219 77.80000305175781 -14.336999893188477 0 -1
116 82.5999984741211 -13.279999732971191 0 -1
116.30000305175781 93.9000015258789 -13.70199966430664 0 -1
115.5 89.0999984741211 -14.8149995803833 0 -1
112.9000015258789 75.9000015258789 -14.491000175476074 0 -1
113.5999984741211 78.80000305175781 -14.878999710083008 0 -1
120.5 76.19999694824219 -12.47700023651123 0 -1
117.0999984741211 79.69999694824219 -12.9350004196167 0 -1
117.5 81.69999694824219 -13.470000267028809 0 -1
110.19999694824219 77.0999984741211 -11.843999862670898 0 -1
115.9000015258789 75 -13.734000205993652 0 -1
115.69999694824219 87.9000015258789 -15.885000228881836 0 -1
121.4000015258789 89.4000015258789 -16.83799934387207 0 -1
116.9000015258789 80.9000015258789 -12.9350004196167 0 -1
114.80000305175781 90.9000015258789 -15.717000007629395 0 -1
115.30000305175781 92.19999694824219 -15.012999534606934 0 -1
118 78.9000015258789 -13.324999809265137 0 -1
112.5 80.5999984741211 -14.47599983215332 0 -1
115 82 -13.829999923706055 0 -1
121.0999984741211 81.80000305175781 -14.225000381469727 0 -1
118.19999694824219 86.69999694824219 -14.071000099182129 0 -1
115.5999984741211 76 -13.729000091552734 0 -1
116.5999984741211 82.30000305175781 -12.986000061035156 0 -1
114.80000305175781 91 -15.680999755859375 0 -1
117.0999984741211 79.80000305175781 -12.833999633789062 0 -1
117 92.0999984741211 -15.847999572753906 0 -1
113.0999984741211 85.30000305175781 -16.06999969482422 0 -1
119.0999984741211 85.69999694824219 -13.670000076293945 0 -1
122.30000305175781 80.19999694824219 -14.321999549865723 0 -1
116.19999694824219 88.5 -15.741999626159668 0 -1
118.80000305175781 76.0999984741211 -12.196999549865723 0 -1
119.4000015258789 88.30000305175781 -14.612000465393066 0 -1
112.9000015258789 75.80000305175781 -14.369999885559082 0 -1
116.80000305175781 82.9000015258789 -13.142999649047852 0 -1
118.69999694824219 87.5999984741211 -14.369000434875488 0 -1
111.80000305175781 74.5 -12.57800006866455 0 -1
112.5 81.19999694824219 -14.633000373840332 0 -1
112.69999694824219 83 -14.515999794006348 0 -1
115.69999694824219 86.19999694824219 -14.524999618530273 0 -1
121.19999694824219 79.30000305175781 -13.72700023651123 0 -1
121.5 84 -13.904999732971191 0 -1
112.4000015258789 79.4000015258789 -14.949000358581543 0 -1
119.5 90.5 -15.998000144958496 0 -1
119.30000305175781 93.9000015258789 -15.58899974822998 0 -1
111.5999984741211 79.5 -14.694999694824219 0 -1
112.80000305175781 76.0999984741211 -14.503999710083008 0 -1
116.69999694824219 89.69999694824219 -15.321999549865723 0 -1
117.4000015258789 78.69999694824219 -12.95199966430664 0 -1
121 85.4000015258789 -14.42300033569336 0 -1
121.69999694824219 80.30000305175781 -14.67300033569336 0 -1
122.5 87.4000015258789 -15.402999877929688 0 -1
113.0999984741211 78.19999694824219 -14.885000228881836 0 -1
118.4000015258789 81.5 -14.447999954223633 0 -1
120.0999984741211 79.9000015258789 -13.35200023651123 0 -1
121.5999984741211 79.30000305175781 -13.678999900817871 0 -1
117.5999984741211 92.69999694824219 -15.824000358581543 0 -1
119.4000015258789 88.19999694824219 -14.557999610900879 0 -1
113.5 74.5 -14.23799991607666 0 -1
110 74.80000305175781 -11.788000106811523 0 -1
120 90.9000015258789 -15.74899959564209 0 -1
115.30000305175781 76.80000305175781 -13.871000289916992 0 -1
115.4000015258789 78.0999984741211 -12.501999855041504 0 -1
116.4000015258789 80.4000015258789 -12.031000137329102 0 -1
111.19999694824219 77.5999984741211 -14.40999984741211 0 -1
119 91.19999694824219 -15.869000434875488 0 -1
120 75.5 -12.501999855041504 0 -1
111.5 76 -13.994999885559082 0 -1
115.80000305175781 80.19999694824219 -12.871000289916992 0 -1
120.5999984741211 82.5999984741211 -14.211000442504883 0 -1
122.5 87.30000305175781 -15.39900016784668 0 -1
112.5999984741211 81.30000305175781 -14.85099983215332 0 -1
122.69999694824219 86.5999984741211 -14.755000114440918 0 -1
116.9000015258789 81.0999984741211 -12.88599967956543 0 -1
114.9000015258789 80.80000305175781 -13.020999908447266 0 -1
117.69999694824219 89.9000015258789 -15.687999725341797 0 -1
117.4000015258789 78.5999984741211 -12.854000091552734 0 -1
115.19999694824219 79.9000015258789 -12.822999954223633 0 -1
118.0999984741211 91.80000305175781 -15.800999641418457 0 -1
117.30000305175781 83 -13.161999702453613 0 -1
122 84.4000015258789 -14.475000381469727 0 -1
120.69999694824219 78.5999984741211 -13.465999603271484 0 -1
112.0999984741211 83.0999984741211 -15.211999893188477 0 -1
110.9000015258789 80.19999694824219 -14.729999542236328 0 -1
114.69999694824219 79.5999984741211 -14.562999725341797 0 -1
117.5999984741211 77.4000015258789 -13.243000030517578 0 -1
118.69999694824219 87.80000305175781 -14.458999633789062 0 -1
117.80000305175781 81.9000015258789 -14.631999969482422 0 -1
123 85.9000015258789 -14.694000244140625 0 -1
116.4000015258789 81.4000015258789 -12.053999900817871 0 -1
115.30000305175781 76.9000015258789 -13.831999778747559 0 -1
111 76.9000015258789 -13.920999526977539 0 -1
115.9000015258789 90.30000305175781 -14.579000473022461 0 -1
122 84.30000305175781 -14.098999977111816 0 -1
115.5 89 -14.986000061035156 0 -1
117.19999694824219 88.80000305175781 -14.96500015258789 0 -1
121.5 84.19999694824219 -13.904999732971191 0 -1
112.69999694824219 79.9000015258789 -14.548999786376953 0 -1
111.5999984741211 79.5999984741211 -14.913999557495117 0 -1
115.4000015258789 78.19999694824219 -11.960000038146973 0 -1
111.80000305175781 77 -14.50100040435791 0 -1
116.30000305175781 90.4000015258789 -14.911999702453613 0 -1
118.80000305175781 93.5 -15.854000091552734 0 -1
116.80000305175781 82.69999694824219 -13.116999626159668 0 -1
115.9000015258789 74.9000015258789 -13.770000457763672 0 -1
116.5999984741211 83.5999984741211 -13.512999534606934 0 -1
114 81.80000305175781 -13.833000183105469 0 -1
118.19999694824219 86.5999984741211 -14.098999977111816 0 -1
113 74.30000305175781 -14.732000350952148 0 -1
118.9000015258789 87.30000305175781 -14.243000030517578 0 -1
120.69999694824219 78.69999694824219 -13.404999732971191 0 -1
116 85.30000305175781 -14.598999977111816 0 -1
112.69999694824219 83.4000015258789 -14.581999778747559 0 -1
115.0999984741211 77.5999984741211 -13.718999862670898 0 -1
111 76.80000305175781 -13.87600040435791 0 -1
114.69999694824219 79.5 -13.121999740600586 0 -1
114.19999694824219 87.19999694824219 -15.970000267028809 0 -1
113 74.69999694824219 -13.746000289916992 0 -1
118 94.30000305175781 -13.979000091552734 0 -1
114.0999984741211 76.4000015258789 -14.562000274658203 0 -1
119.0999984741211 85.5999984741211 -13.670000076293945 0 -1
115.80000305175781 80 -12.871000289916992 0 -1
113.0999984741211 78 -14.87399959564209 0 -1
112.4000015258789 79.5999984741211 -14.928999900817871 0 -1
116.69999694824219 88.5 -15.17199993133545 0 -1
114.4000015258789 88 -16.749000549316406 0 -1
121.9000015258789 86.0999984741211 -15.11400032043457 0 -1
121.19999694824219 79.19999694824219 -13.668000221252441 0 -1
121.5 84.0999984741211 -14.020999908447266 0 -1
119.5 90.5999984741211 -15.961000442504883 0 -1
112 84.0999984741211 -16.117000579833984 0 -1
111.0999984741211 77.9000015258789 -13.984000205993652 0 -1
112.80000305175781 76 -14.381999969482422 0 -1
112.4000015258789 79.5 -14.9350004196167 0 -1
110 75.19999694824219 -11.984000205993652 0 -1
113.5999984741211 78.4000015258789 -13.88700008392334 0 -1
116.5999984741211 83.69999694824219 -13.541999816894531 0 -1
117.80000305175781 81.69999694824219 -14.631999969482422 0 -1
121.80000305175781 76.5 -12.086999893188477 0 -1
120 91 -16.075000762939453 0 -1
122.5 87.5 -15.395000457763672 0 -1
113.9000015258789 87.69999694824219 -16.948999404907227 0 -1
117.5999984741211 92.5999984741211 -15.871999740600586 0 -1
117 91.19999694824219 -15.96399974822998 0 -1
119.30000305175781 76.4000015258789 -12.454000473022461 0 -1
113.5 74.5999984741211 -13.96500015258789 0 -1
121 85.5 -14.531999588012695 0 -1
116.0999984741211 88.0999984741211 -15.468999862670898 0 -1
116.19999694824219 87.5999984741211 -14.967000007629395 0 -1
118 79 -13.270999908447266 0 -1
118.9000015258789 87.4000015258789 -14.079999923706055 0 -1
118.5999984741211 80.19999694824219 -12.972000122070312 0 -1
117.0999984741211 78.9000015258789 -12.708999633789062 0 -1
117.5999984741211 77.19999694824219 -13.170000076293945 0 -1
115.9000015258789 75.0999984741211 -13.770000457763672 0 -1
115.5999984741211 75.9000015258789 -13.786999702453613 0 -1
115.30000305175781 92.30000305175781 -15.057999610900879 0 -1
121 85 -13.984999656677246 0 -1
113.80000305175781 84.69999694824219 -15.46399974822998 0 -1
121.4000015258789 89.5 -16.81399917602539 0 -1
120.0999984741211 80.30000305175781 -13.758000373840332 0 -1
122.69999694824219 86.69999694824219 -14.706999778747559 0 -1
118.0999984741211 91.9000015258789 -15.748000144958496 0 -1
120.5 75.80000305175781 -12.114999771118164 0 -1
116 85.5 -14.5649995803833 0 -1
114.19999694824219 86.9000015258789 -15.892999649047852 0 -1
115.0999984741211 77.80000305175781 -13.602999687194824 0 -1
113.9000015258789 87.80000305175781 -16.986000061035156 0 -1
114.30000305175781 74.5999984741211 -14.527000427246094 0 -1
115.30000305175781 92.4000015258789 -15.012999534606934 0 -1
115 82.0999984741211 -13.847999572753906 0 -1
112.5999984741211 81.4000015258789 -14.612000465393066 0 -1
112.69999694824219 80.30000305175781 -14.527000427246094 0 -1
121.0999984741211 81.69999694824219 -14.201000213623047 0 -1
123 85.80000305175781 -15.491999626159668 0 -1
117.9000015258789 94.30000305175781 -13.972999572753906 0 -1
121.80000305175781 76.5999984741211 -11.934000015258789 0 -1
120.5 76 -12.045000076293945 0 -1
117.9000015258789 79.80000305175781 -13.406999588012695 0 -1
112.0999984741211 83 -14.92300033569336 0 -1
119.9000015258789 85.80000305175781 -13.621000289916992 0 -1
122.30000305175781 80.30000305175781 -14.621999740600586 0 -1
121.5 84.30000305175781 -13.85099983215332 0 -1
115.5999984741211 75.80000305175781 -13.729000091552734 0 -1
116.80000305175781 82.80000305175781 -13.15999984741211 0 -1
118.69999694824219 87.69999694824219 -14.411999702453613 0 -1
110.9000015258789 79.5999984741211 -13.375 0 -1
112.5 81.30000305175781 -14.628000259399414 0 -1
113.0999984741211 85.19999694824219 -16.035999298095703 0 -1
118 79.0999984741211 -13.432000160217285 0 -1
111.9000015258789 83.80000305175781 -15.963000297546387 0 -1
118.0999984741211 91.4000015258789 -15.694000244140625 0 -1
111.80000305175781 76.9000015258789 -14.50100040435791 0 -1
116.30000305175781 90.5 -14.984999656677246 0 -1
117.5999984741211 77.30000305175781 -12.923999786376953 0 -1
115.5 88.9000015258789 -14.89900016784668 0 -1
121.69999694824219 79.9000015258789 -14.244000434875488 0 -1
116.5 86.19999694824219 -14.913000106811523 0 -1
116.4000015258789 81.30000305175781 -12.192999839782715 0 -1
111 74.69999694824219 -12.152000427246094 0 -1
111.5999984741211 78.0999984741211 -14.48799991607666 0 -1
115.19999694824219 80.0999984741211 -12.994999885559082 0 -1
118.19999694824219 86.5 -14.262999534606934 0 -1
112.5999984741211 80.4000015258789 -14.562000274658203 0 -1
114.19999694824219 86.80000305175781 -15.84000015258789 0 -1
119.30000305175781 76.30000305175781 -12.279000282287598 0 -1
111.0999984741211 81.80000305175781 -14.826000213623047 0 -1
119.30000305175781 93.80000305175781 -15.51200008392334 0 -1
119.5 90.4000015258789 -15.901000022888184 0 -1
117.19999694824219 88.4000015258789 -15.163999557495117 0 -1
117.30000305175781 83.9000015258789 -13.638999938964844 0 -1
114 81.9000015258789 -13.718000411987305 0 -1
112.9000015258789 76.19999694824219 -14.626999855041504 0 -1
118.30000305175781 85.19999694824219 -13.788000106811523 0 -1
119.19999694824219 82.19999694824219 5.410999774932861 1 -1
115.0999984741211 77.69999694824219 -13.777000427246094 0 -1
114.0999984741211 76.30000305175781 -14.62399959564209 0 -1
120.5999984741211 82.9000015258789 5.968999862670898 1 -1
118.4000015258789 81.4000015258789 -14.38599967956543 0 -1
117.69999694824219 89.30000305175781 -14.979000091552734 0 -1
117.5 81.0999984741211 -13.027999877929688 0 -1
117.0999984741211 94.30000305175781 -13.833999633789062 0 -1
117.4000015258789 78 -13.048999786376953 0 -1
119.4000015258789 88.0999984741211 -14.612000465393066 0 -1
119.80000305175781 85 8.736000061035156 1 -1
121.0999984741211 81.5999984741211 -14.178999900817871 0 -1
116.5 86.0999984741211 -14.88599967956543 0 -1
111.5999984741211 78.19999694824219 -14.493000030517578 0 -1
115.9000015258789 90.4000015258789 -14.76200008392334 0 -1
118.80000305175781 93.5999984741211 -15.616999626159668 0 -1
112.69999694824219 83.30000305175781 -14.465999603271484 0 -1
110.19999694824219 77 -11.803000450134277 0 -1
119.5999984741211 83.80000305175781 9.218999862670898 1 -1
120.9000015258789 88.4000015258789 -14.920999526977539 0 -1
119.30000305175781 93.69999694824219 -15.58899974822998 0 -1
114.9000015258789 80.69999694824219 -12.75 0 -1
116.19999694824219 87.80000305175781 -14.895000457763672 0 -1
116.0999984741211 88.30000305175781 -15.782999992370605 0 -1
115.80000305175781 80.0999984741211 -12.565999984741211 0 -1
112.9000015258789 76.0999984741211 -14.4350004196167 0 -1
115.19999694824219 80 -12.961000442504883 0 -1
116.9000015258789 81.69999694824219 -12.847999572753906 0 -1
116.5999984741211 83.5 -13.510000228881836 0 -1
118.69999694824219 87.4000015258789 -14.104999542236328 0 -1
111.0999984741211 81.9000015258789 -14.815999984741211 0 -1
112.5 81.4000015258789 -14.517999649047852 0 -1
121.19999694824219 79 -13.791000366210938 0 -1
113.5999984741211 78.5 -14.878000259399414 0 -1
120.19999694824219 84 9.21500015258789 1 -1
118.80000305175781 76.19999694824219 -12.725000381469727 0 -1
118 94.4000015258789 -13.883999824523926 0 -1
113.5 74.69999694824219 -14.137999534606934 0 -1
120 91.0999984741211 -15.74899959564209 0 -1
119.80000305175781 82.9000015258789 6.811999797821045 1 -1
112.80000305175781 75.9000015258789 -14.503999710083008 0 -1
122.5999984741211 83.9000015258789 -14.652000427246094 0 -1
114.4000015258789 86.0999984741211 -15.687000274658203 0 -1
122.19999694824219 85.9000015258789 -14.904000282287598 0 -1
113.9000015258789 87.5999984741211 -16.986000061035156 0 -1
115 82.30000305175781 -13.795000076293945 0 -1
112.4000015258789 78.19999694824219 -14.699999809265137 0 -1
120.80000305175781 83.5999984741211 5.7179999351501465 1 -1
122 84.19999694824219 -14.263999938964844 0 -1
115.69999694824219 86.0999984741211 -14.555000305175781 0 -1
115.80000305175781 79.9000015258789 -12.416999816894531 0 -1
116.19999694824219 87.69999694824219 -14.980999946594238 0 -1
119.5999984741211 84.0999984741211 8.744999885559082 1 -1
116.80000305175781 82.0999984741211 -12.859000205993652 0 -1
118.4000015258789 81.30000305175781 -14.437000274658203 0 -1
119.0999984741211 85.5 -13.670000076293945 0 -1
113.80000305175781 84.5999984741211 -14.708000183105469 0 -1
120.30000305175781 82 6.708000183105469 1 -1
113.0999984741211 85 -15.756999969482422 0 -1
122.69999694824219 86.80000305175781 -15.07800006866455 0 -1
116.0999984741211 88.19999694824219 -15.906999588012695 0 -1
111.5 77.5999984741211 -14.708000183105469 0 -1
115.30000305175781 77 -13.871000289916992 0 -1
115.4000015258789 78.30000305175781 -12.057000160217285 0 -1
120.19999694824219 85 8.704000473022461 1 -1
121.5999984741211 78.9000015258789 -13.720000267028809 0 -1
121 85.0999984741211 -13.737000465393066 0 -1
116 85.4000015258789 -14.390999794006348 0 -1
114.4000015258789 86.19999694824219 -15.748000144958496 0 -1
117.5999984741211 77.0999984741211 -13.16100025177002 0 -1
120.0999984741211 80.19999694824219 -13.53600025177002 0 -1
121.19999694824219 79.0999984741211 -13.803000450134277 0 -1
119.9000015258789 82.80000305175781 6.696000099182129 1 -1
110.9000015258789 79.5 -13.392000198364258 0 -1
115.9000015258789 90.5999984741211 -14.76200008392334 0 -1
117.4000015258789 77.9000015258789 -12.821000099182129 0 -1
118.80000305175781 93.80000305175781 -15.345000267028809 0 -1
114.19999694824219 87 -15.944000244140625 0 -1
110.19999694824219 76.80000305175781 -11.803000450134277 0 -1
119.9000015258789 85.9000015258789 -13.675999641418457 0 -1
112.69999694824219 80.19999694824219 -14.470999717712402 0 -1
112.30000305175781 74.0999984741211 -14.687000274658203 0 -1
118 94.5 -13.765999794006348 0 -1
114 81.69999694824219 -13.718000411987305 0 -1
110 75.0999984741211 -11.994999885559082 0 -1
113 74.5999984741211 -13.881999969482422 0 -1
115.19999694824219 80.19999694824219 -13.920999526977539 0 -1
119.5999984741211 83.0999984741211 7.294000148773193 1 -1
114.0999984741211 76.5 -14.557999610900879 0 -1
115.9000015258789 75.19999694824219 -13.734000205993652 0 -1
120.80000305175781 83.69999694824219 -13.803000450134277 0 -1
118.69999694824219 84.30000305175781 4.583000183105469 1 -1
118.0999984741211 91.5 -15.618000030517578 0 -1
111.80000305175781 76.80000305175781 -14.449000358581543 0 -1
116.30000305175781 90.5999984741211 -15.62399959564209 0 -1
114.69999694824219 79.4000015258789 -13.142000198364258 0 -1
115.0999984741211 77.4000015258789 -14.880000114440918 0 -1
117.5 80.9000015258789 -13.027999877929688 0 -1
116.4000015258789 81.19999694824219 -12.317000389099121 0 -1
119.19999694824219 83.69999694824219 8.895999908447266 1 -1
113.0999984741211 77.9000015258789 -14.821999549865723 0 -1
115.30000305175781 77.0999984741211 -13.791999816894531 0 -1
118.30000305175781 84.0999984741211 4.329999923706055 1 -1
118.19999694824219 86.4000015258789 -14.204999923706055 0 -1
112.4000015258789 78.0999984741211 -14.24899959564209 0 -1
116.69999694824219 88.4000015258789 -15.180000305175781 0 -1
116.30000305175781 75.19999694824219 -13.661999702453613 0 -1
112 84 -16.023000717163086 0 -1
122 84.0999984741211 -14.098999977111816 0 -1
115.5 88.80000305175781 -14.946000099182129 0 -1
117.80000305175781 81.5999984741211 -13.135000228881836 0 -1
112.5999984741211 80.5 -14.604999542236328 0 -1
118.5999984741211 80.5999984741211 -13.456000328063965 0 -1
120.69999694824219 78.80000305175781 -13.465999603271484 0 -1
116.0999984741211 88.4000015258789 -15.741999626159668 0 -1
116.9000015258789 81.9000015258789 -12.83899974822998 0 -1
117.69999694824219 89.0999984741211 -14.979000091552734 0 -1
112.5 80.9000015258789 -14.670000076293945 0 -1
115.69999694824219 86.4000015258789 -14.54699993133545 0 -1
111.80000305175781 77.30000305175781 -14.618000030517578 0 -1
120.30000305175781 83.9000015258789 9.291999816894531 1 -1
119.69999694824219 89.69999694824219 -16.086000442504883 0 -1
111.0999984741211 81.69999694824219 -14.812000274658203 0 -1
117.19999694824219 88.5 -15.105999946594238 0 -1
117.30000305175781 83.80000305175781 -13.520999908447266 0 -1
121 82 6.35699987411499 1 -1
118 79.19999694824219 -13.229000091552734 0 -1
110.69999694824219 75.5999984741211 -12.607999801635742 0 -1
119.19999694824219 83.19999694824219 8.821999549865723 1 -1
119.0999984741211 84.5 8.194000244140625 1 -1
113 74.5 -13.746000289916992 0 -1
110.19999694824219 76.9000015258789 -11.843999862670898 0 -1
118.9000015258789 87.5 -14.326000213623047 0 -1
117.0999984741211 79 -12.668999671936035 0 -1
117 91.30000305175781 -15.930000305175781 0 -1
117.5 81 -12.817999839782715 0 -1
119.5999984741211 84.80000305175781 -13.741000175476074 0 -1
122.19999694824219 86 -15.491999626159668 0 -1
121.0999984741211 81.5 -14.222000122070312 0 -1
117.9000015258789 78.9000015258789 -13.270999908447266 0 -1
120.9000015258789 88.5 -15.013999938964844 0 -1
116 85.0999984741211 -14.555999755859375 0 -1
111.5 77.80000305175781 -14.470999717712402 0 -1
119.5 90.80000305175781 -15.961000442504883 0 -1
118.80000305175781 93.69999694824219 -15.52400016784668 0 -1
112.69999694824219 83.19999694824219 -14.463000297546387 0 -1
121.5999984741211 79.0999984741211 -13.720000267028809 0 -1
113.5999984741211 78.0999984741211 -13.920999526977539 0 -1
119.19999694824219 82.5999984741211 5.165999889373779 1 -1
116.19999694824219 87.9000015258789 -14.980999946594238 0 -1
118.30000305175781 84.19999694824219 4.247000217437744 1 -1
118.80000305175781 76.4000015258789 -12.725000381469727 0 -1
115.69999694824219 86.5 -15.038000106811523 0 -1
114.30000305175781 74.69999694824219 -14.623000144958496 0 -1
115.5999984741211 76.19999694824219 -13.758000373840332 0 -1
118.69999694824219 87.30000305175781 -14.210000038146973 0 -1
116.69999694824219 88.19999694824219 -15.303999900817871 0 -1
120.5999984741211 82 -14.263999938964844 0 -1
117.9000015258789 94.4000015258789 -13.777000427246094 0 -1
110.69999694824219 75.69999694824219 -12.666999816894531 0 -1
112.80000305175781 75.80000305175781 -14.381999969482422 0 -1
112.9000015258789 76.5 -14.598999977111816 0 -1
115 82.19999694824219 -13.819999694824219 0 -1
118.30000305175781 85.0999984741211 -13.803000450134277 0 -1
117.0999984741211 79.0999984741211 -12.708999633789062 0 -1
116.5999984741211 83.9000015258789 -13.581999778747559 0 -1
118.80000305175781 76.30000305175781 -12.711000442504883 0 -1
121.19999694824219 78.9000015258789 -13.803000450134277 0 -1
121.80000305175781 76.69999694824219 -12.086999893188477 0 -1
112.5 81 -14.633000373840332 0 -1
119.4000015258789 89 -14.90999984741211 0 -1
112.4000015258789 78.30000305175781 -14.663000106811523 0 -1
121.5999984741211 79 -13.687000274658203 0 -1
113.80000305175781 84.5 -14.690999984741211 0 -1
121.4000015258789 89.30000305175781 -16.81399917602539 0 -1
111 74.5999984741211 -12.0600004196167 0 -1
113.0999984741211 85.0999984741211 -15.840999603271484 0 -1
122.69999694824219 86.9000015258789 -15.043000221252441 0 -1
122.5 87.0999984741211 -14.66100025177002 0 -1
119.5 75.5 -12.541000366210938 0 -1
111.5 77.69999694824219 -14.71500015258789 0 -1
120.19999694824219 85.0999984741211 8.651000022888184 1 -1
118.9000015258789 87.5999984741211 -14.309000015258789 0 -1
118.5999984741211 80.4000015258789 -12.972000122070312 0 -1
111.9000015258789 83.69999694824219 -15.911999702453613 0 -1
122.5999984741211 83.5 -13.531999588012695 0 -1
119.0999984741211 85.4000015258789 -13.795000076293945 0 -1
116.5 86.5 -14.845999717712402 0 -1
122.30000305175781 79.9000015258789 -14.336999893188477 0 -1
112.69999694824219 83.69999694824219 -14.621999740600586 0 -1
121 85.19999694824219 -14.42300033569336 0 -1
121.69999694824219 80.0999984741211 -14.550000190734863 0 -1
116.4000015258789 81.0999984741211 -11.97599983215332 0 -1
116.30000305175781 90.19999694824219 -14.911999702453613 0 -1
119.30000305175781 76.19999694824219 -12.310999870300293 0 -1
120 90.19999694824219 -15.847000122070312 0 -1
119.80000305175781 82 -14.159000396728516 0 -1
117.0999984741211 94.4000015258789 -13.996000289916992 0 -1
117.9000015258789 79.0999984741211 -13.229000091552734 0 -1
120.19999694824219 84.9000015258789 -13.932999610900879 0 -1
110.9000015258789 79.4000015258789 -12.99899959564209 0 -1
118.80000305175781 93.9000015258789 -15.42199993133545 0 -1
119.4000015258789 88.9000015258789 -14.70199966430664 0 -1
115.9000015258789 90.5 -14.878999710083008 0 -1
115.4000015258789 77.9000015258789 -12.487000465393066 0 -1
115.5999984741211 76.0999984741211 -13.786999702453613 0 -1
118.30000305175781 85 -13.86299991607666 0 -1
117.69999694824219 89.19999694824219 -15.322999954223633 0 -1
112.30000305175781 74 -14.736000061035156 0 -1
115 82.4000015258789 -13.782999992370605 0 -1
120.0999984741211 80.5999984741211 -14.12600040435791 0 -1
111 74.5 -11.989999771118164 0 -1
111.5999984741211 78.30000305175781 -14.48799991607666 0 -1
110.4000015258789 77.69999694824219 -12.675999641418457 0 -1
117.5999984741211 92.5 -15.975000381469727 0 -1
113.0999984741211 85.9000015258789 -16.71500015258789 0 -1
122.30000305175781 80.0999984741211 -14.366000175476074 0 -1
117 91.5 -15.97599983215332 0 -1
117.4000015258789 78.30000305175781 -12.407999992370605 0 -1
119.30000305175781 76.0999984741211 -12.397000312805176 0 -1
118.69999694824219 87.5 -14.326000213623047 0 -1
119.30000305175781 93.5999984741211 -15.907999992370605 0 -1
114.9000015258789 80.5999984741211 -13.22700023651123 0 -1
117.30000305175781 83.69999694824219 -13.46399974822998 0 -1
118.0999984741211 91.5999984741211 -15.800999641418457 0 -1
118.5999984741211 80.5 -13.357000350952148 0 -1
120.80000305175781 83.19999694824219 6.663000106811523 1 -1
111.9000015258789 83.5999984741211 -15.741000175476074 0 -1
115.5 88.69999694824219 -15.96500015258789 0 -1
119.9000015258789 82.69999694824219 6.754000186920166 1 -1
116.5 86.4000015258789 -14.800999641418457 0 -1
111.80000305175781 77.19999694824219 -14.579999923706055 0 -1
120.4000015258789 89.30000305175781 -15.286999702453613 0 -1
120.5 76.5999984741211 -12.373000144958496 0 -1
114.69999694824219 79.80000305175781 -13.27400016784668 0 -1
111.5 77.4000015258789 -14.708000183105469 0 -1
117.0999984741211 94.5 -13.833999633789062 0 -1
123 85.69999694824219 -14.694000244140625 0 -1
112.5999984741211 80.5999984741211 -14.954999923706055 0 -1
120.69999694824219 77.9000015258789 -13.184000015258789 0 -1
119.9000015258789 86 -13.668999671936035 0 -1
116.9000015258789 81.80000305175781 -12.918000221252441 0 -1
119.19999694824219 83.30000305175781 8.73900032043457 1 -1
122.19999694824219 85.80000305175781 -14.920999526977539 0 -1
113.5999984741211 78.19999694824219 -13.88700008392334 0 -1
119.80000305175781 82.0999984741211 6.086999893188477 1 -1
117.9000015258789 79 -13.336999893188477 0 -1
116 85 -14.567999839782715 0 -1
119.0999984741211 84.5999984741211 8.343999862670898 1 -1
115.4000015258789 78 -12.831999778747559 0 -1
116.80000305175781 82 -12.751999855041504 0 -1
118.4000015258789 81.19999694824219 -13.473999977111816 0 -1
117.69999694824219 89.5 -15.145999908447266 0 -1
119.69999694824219 89.80000305175781 -16.125 0 -1
115.80000305175781 80.80000305175781 -11.557999610900879 0 -1
113.0999984741211 78.80000305175781 -14.88700008392334 0 -1
118.19999694824219 86.30000305175781 -14.218999862670898 0 -1
114.19999694824219 86.5999984741211 -15.932999610900879 0 -1
117.19999694824219 88.0999984741211 -15.206999778747559 0 -1
120.5 94 -15.411999702453613 0 -1
121 82.4000015258789 6.36899995803833 1 -1
112.69999694824219 80.5999984741211 -14.47599983215332 0 -1
121 82.69999694824219 6.025000095367432 1 -1
116.69999694824219 88.30000305175781 -15.270999908447266 0 -1
112.0999984741211 83.4000015258789 -15.253000259399414 0 -1
116.19999694824219 88 -14.895000457763672 0 -1
118 94.5999984741211 -13.880000114440918 0 -1
120.80000305175781 83.30000305175781 5.341000080108643 1 -1
118.69999694824219 84.69999694824219 8.26200008392334 1 -1
118.5 84.30000305175781 4.465000152587891 1 -1
122.5999984741211 83.69999694824219 -14.050000190734863 0 -1
114.4000015258789 86.30000305175781 -15.807999610900879 0 -1
118.80000305175781 76.5 -12.925999641418457 0 -1
115.9000015258789 90.69999694824219 -14.859999656677246 0 -1
115.30000305175781 77.19999694824219 -13.713000297546387 0 -1
117.5 81.30000305175781 -13.104000091552734 0 -1
113.80000305175781 84.9000015258789 -15.46399974822998 0 -1
119.19999694824219 82.5 5.35099983215332 1 -1
112.30000305175781 74.19999694824219 -14.859000205993652 0 -1
114.69999694824219 79.69999694824219 -13.121999740600586 0 -1
114 81.5999984741211 -13.5600004196167 0 -1
118.5999984741211 80.80000305175781 -13.51200008392334 0 -1
120.4000015258789 89.0999984741211 -15.286999702453613 0 -1
115.9000015258789 75.30000305175781 -13.760000228881836 0 -1
121.5 84.4000015258789 -13.795000076293945 0 -1
121.9000015258789 86.30000305175781 -15.11400032043457 0 -1
122.69999694824219 87 -15.07800006866455 0 -1
116.9000015258789 81.5 -12.567999839782715 0 -1
114.9000015258789 80.4000015258789 -13.72599983215332 0 -1
119.5999984741211 83 7.177000045776367 1 -1
120.19999694824219 85.19999694824219 8.704000473022461 1 -1
120.9000015258789 87.5999984741211 -15.680000305175781 0 -1
122 84 6.2220001220703125 1 -1
115.69999694824219 86.30000305175781 -14.744999885559082 0 -1
114.0999984741211 76.5999984741211 -14.906000137329102 0 -1
117.80000305175781 81.5 -14.793999671936035 0 -1
118.4000015258789 81.0999984741211 -14.461000442504883 0 -1
116.4000015258789 81 -12.317000389099121 0 -1
117.5999984741211 92.30000305175781 -15.975000381469727 0 -1
122.5999984741211 83.5999984741211 -14.456999778747559 0 -1
116.30000305175781 90.30000305175781 -14.984999656677246 0 -1
117.5 81.4000015258789 -12.906999588012695 0 -1
115.30000305175781 77.30000305175781 -13.345999717712402 0 -1
119.0999984741211 85.30000305175781 -13.781999588012695 0 -1
112.4000015258789 77.9000015258789 -14.359999656677246 0 -1
120.69999694824219 78 -13.258000373840332 0 -1
118 94.69999694824219 4.0329999923706055 3 -1
112.69999694824219 83.5999984741211 -14.63599967956543 0 -1
120.0999984741211 80.5 -13.963000297546387 0 -1
120.19999694824219 84.80000305175781 8.626999855041504 1 -1
116 85.19999694824219 -14.57800006866455 0 -1
119.9000015258789 82.0999984741211 6.646999835968018 1 -1
110.4000015258789 77.80000305175781 -12.895000457763672 0 -1
120 90.30000305175781 -15.673999786376953 0 -1
112.80000305175781 76.69999694824219 -14.666000366210938 0 -1
118 79.30000305175781 -13.432000160217285 0 -1
117.5999984741211 92.4000015258789 -15.871999740600586 0 -1
119.5999984741211 84.9000015258789 -13.484999656677246 0 -1
113.0999984741211 86 -16.895000457763672 0 -1
117 91.4000015258789 -15.880999565124512 0 -1
118.30000305175781 84.80000305175781 4.089000225067139 1 -1
112.0999984741211 83.19999694824219 -15.270999908447266 0 -1
110.69999694824219 75.30000305175781 -12.47700023651123 0 -1
119.5 90.69999694824219 -15.96399974822998 0 -1
118.5 84.0999984741211 4.521999835968018 1 -1
118.30000305175781 85.5 -14.005999565124512 0 -1
118.69999694824219 84.5 8.26200008392334 1 -1
122.30000305175781 80 -14.321999549865723 0 -1
117.5999984741211 77 -13.37399959564209 0 -1
113.0999984741211 78.5999984741211 -14.977999687194824 0 -1
113.9000015258789 88 -16.878000259399414 0 -1
122.80000305175781 80.0999984741211 -13.895000457763672 0 -1
121.5 85.5999984741211 -15.220000267028809 0 -1
121.69999694824219 95 4.646999835968018 3 -1
117.30000305175781 83.5999984741211 -13.380999565124512 0 -1
118 79.4000015258789 -13.324000358581543 0 -1
123 85.5999984741211 -14.694000244140625 0 -1
122.5 87.19999694824219 -14.595999717712402 0 -1
122.4000015258789 85.9000015258789 -14.904000282287598 0 -1
111.5999984741211 77.9000015258789 -14.611000061035156 0 -1
115.5 88.5999984741211 -15.9350004196167 0 -1
115.9000015258789 75.5 -13.640999794006348 0 -1
116.69999694824219 88.0999984741211 -15.281000137329102 0 -1
117.0999984741211 79.19999694824219 -12.847000122070312 0 -1
112.5999984741211 80.69999694824219 -14.47599983215332 0 -1
117.19999694824219 88.19999694824219 -15.22599983215332 0 -1
112.5 81.0999984741211 -14.670000076293945 0 -1
112.9000015258789 76.4000015258789 -14.675000190734863 0 -1
113.5999984741211 78.30000305175781 -13.920999526977539 0 -1
118.0999984741211 91.19999694824219 -15.694000244140625 0 -1
119.30000305175781 93.5 -15.845999717712402 0 -1
115.0999984741211 77.5 -13.777000427246094 0 -1
121.69999694824219 79.69999694824219 -14.29800033569336 0 -1
112.0999984741211 83.30000305175781 -15.329999923706055 0 -1
118.19999694824219 86.19999694824219 -14.229000091552734 0 -1
119.19999694824219 83.4000015258789 8.821999549865723 1 -1
119.0999984741211 84.69999694824219 8.194000244140625 1 -1
115.19999694824219 80.30000305175781 -13.758999824523926 0 -1
117.80000305175781 81.30000305175781 -13.819000244140625 0 -1
118.9000015258789 87.69999694824219 -14.454000473022461 0 -1
121.5999984741211 80.69999694824219 -14.732000350952148 0 -1
119.9000015258789 85.5999984741211 -13.690999984741211 0 -1
122.19999694824219 86.19999694824219 -15.604999542236328 0 -1
118.30000305175781 84.9000015258789 3.947999954223633 1 -1
110.9000015258789 79.80000305175781 -13.711000442504883 0 -1
115.5999984741211 76.5 -13.501999855041504 0 -1
118.30000305175781 85.4000015258789 -14.006999969482422 0 -1
121 82.30000305175781 6.335999965667725 1 -1
111.80000305175781 77.0999984741211 -14.541999816894531 0 -1
111.19999694824219 74.19999694824219 -11.836000442504883 0 -1
116.0999984741211 88.5 -16.167999267578125 0 -1
112.69999694824219 80.5 -14.519000053405762 0 -1
113.80000305175781 84.80000305175781 -15.338000297546387 0 -1
121 82.80000305175781 6.638000011444092 1 -1
111.9000015258789 83.5 -15.555999755859375 0 -1
112.5 81.69999694824219 -14.640000343322754 0 -1
117.9000015258789 79.19999694824219 -13.378000259399414 0 -1
118.5 84.19999694824219 4.4710001945495605 1 -1
117.5 81.19999694824219 -12.817999839782715 0 -1
119.4000015258789 88.80000305175781 -14.689000129699707 0 -1
112.69999694824219 83.5 -14.618000030517578 0 -1
121.9000015258789 85.69999694824219 -15.038000106811523 0 -1
115.69999694824219 86.69999694824219 -15.038000106811523 0 -1
118.69999694824219 87.0999984741211 -14.074000358581543 0 -1
120.30000305175781 83.80000305175781 9.309000015258789 1 -1
111.0999984741211 81.5999984741211 -14.826000213623047 0 -1
111 74.4000015258789 -11.868000030517578 0 -1
122.69999694824219 87.0999984741211 -15.20199966430664 0 -1
122.5 86.9000015258789 -14.72599983215332 0 -1
114.9000015258789 80.5 -13.437999725341797 0 -1
115.80000305175781 80.69999694824219 -11.73799991607666 0 -1
120.19999694824219 85.30000305175781 8.651000022888184 1 -1
110.4000015258789 77.5999984741211 -12.942999839782715 0 -1
119.30000305175781 93.4000015258789 -15.934000015258789 0 -1
117.4000015258789 78.19999694824219 -13.048999786376953 0 -1
119.19999694824219 82.9000015258789 5.135000228881836 1 -1
115 82.5 -13.795000076293945 0 -1
116.5 86.30000305175781 -14.9399995803833 0 -1
119.5999984741211 84.5999984741211 8.911999702453613 1 -1
111.5999984741211 78 -14.47700023651123 0 -1
117.5999984741211 92.19999694824219 -15.97700023651123 0 -1
113.0999984741211 85.80000305175781 -16.658000946044922 0 -1
117 91.5999984741211 -15.934000015258789 0 -1
119.30000305175781 76 -12.479999542236328 0 -1
120.5 76.69999694824219 -12.383000373840332 0 -1
120.4000015258789 89.19999694824219 -15.204000473022461 0 -1
117.0999984741211 94.5999984741211 -13.755999565124512 0 -1
121.0999984741211 80.30000305175781 -13.746999740600586 0 -1
112.9000015258789 76.30000305175781 -14.593000411987305 0 -1
118.9000015258789 87.80000305175781 -14.496999740600586 0 -1
117.9000015258789 94.5 -12.493000030517578 0 -1
117.5999984741211 76.80000305175781 -13.284000396728516 0 -1
119.0999984741211 85.19999694824219 -13.795000076293945 0 -1
119.9000015258789 82 6.086999893188477 1 -1
120.30000305175781 82.30000305175781 6.789000034332275 1 -1
111.9000015258789 83.4000015258789 -15.508000373840332 0 -1
116.5999984741211 83.80000305175781 -13.562000274658203 0 -1
112.80000305175781 76.5999984741211 -14.598999977111816 0 -1
116.30000305175781 90.9000015258789 -15.934000015258789 0 -1
115.4000015258789 78.5999984741211 -12.550000190734863 0 -1
120.5999984741211 82.0999984741211 6.260000228881836 1 -1
120.0999984741211 80.4000015258789 -14.045000076293945 0 -1
121.19999694824219 78.80000305175781 -13.680000305175781 0 -1
116.4000015258789 80.9000015258789 -11.97599983215332 0 -1
122.5999984741211 82.30000305175781 -14.548999786376953 0 -1
115.19999694824219 80.5 -12.479999542236328 0 -1
117.4000015258789 78.0999984741211 -12.706999778747559 0 -1
119.80000305175781 82.19999694824219 5.204999923706055 1 -1
122.5 86.80000305175781 -14.789999961853027 0 -1
117.30000305175781 83.5 -13.420999526977539 0 -1
114 81.5 -14.3100004196167 0 -1
120.80000305175781 83.4000015258789 5.756999969482422 1 -1
117.69999694824219 89.4000015258789 -15.154999732971191 0 -1
114.4000015258789 86.4000015258789 -15.956999778747559 0 -1
122.30000305175781 81.69999694824219 -13.902000427246094 0 -1
113.0999984741211 78.69999694824219 -14.869000434875488 0 -1
122.80000305175781 80 -13.949999809265137 0 -1
121.5 85.69999694824219 -15.256999969482422 0 -1
120.5 76.4000015258789 -12.47700023651123 0 -1
117.0999984741211 94.69999694824219 -12.706999778747559 0 -1
118.5 84 4.51200008392334 1 -1
118.69999694824219 84.5999984741211 8.26200008392334 1 -1
116.9000015258789 81.5999984741211 -12.571000099182129 0 -1
114.69999694824219 79.0999984741211 -12.510000228881836 0 -1
122.0999984741211 82.9000015258789 -13.916000366210938 0 -1
113.9000015258789 87.9000015258789 -16.948999404907227 0 -1
120.30000305175781 82.19999694824219 6.754000186920166 1 -1
116.80000305175781 82.4000015258789 -12.942999839782715 0 -1
116.4000015258789 81.9000015258789 -12.168999671936035 0 -1
112.30000305175781 74.30000305175781 -14.904999732971191 0 -1
121.0999984741211 80.19999694824219 -14.302000045776367 0 -1
120.80000305175781 83 5.927999973297119 1 -1
112.0999984741211 83.5999984741211 -15.847999572753906 0 -1
118.5999984741211 80.69999694824219 -14.309000015258789 0 -1
111.19999694824219 74 -11.836000442504883 0 -1
122.5999984741211 82.19999694824219 -14.553999900817871 0 -1
122.4000015258789 84 -14.45300006866455 0 -1
116.0999984741211 88.69999694824219 -15.774999618530273 0 -1
114.9000015258789 80.30000305175781 -13.904999732971191 0 -1
117.5999984741211 76.9000015258789 -13.128999710083008 0 -1
115.9000015258789 75.4000015258789 -13.571000099182129 0 -1
115.5 88.5 -15.96500015258789 0 -1
115.19999694824219 80.4000015258789 -13.638999938964844 0 -1
116.80000305175781 82.19999694824219 -12.942999839782715 0 -1
118.0999984741211 91.30000305175781 -15.618000030517578 0 -1
115.4000015258789 78.69999694824219 -12.343999862670898 0 -1
118.19999694824219 86.0999984741211 3.947000026702881 1 -1
110.9000015258789 79.69999694824219 -13.708000183105469 0 -1
117.19999694824219 88.30000305175781 -15.164999961853027 0 -1
