VERSION .7
FIELDS x y z label object
SIZE 4 4 4 4 4
TYPE F F F I I
COUNT 1 1 1 1 1
WIDTH 867
HEIGHT 1
POINTS 867
VIEWPOINT 0 0 0 1 0 0 0
DATA ascii
121.4000015258789 92.80000305175781 -14.89900016784668 1 -1
110.5999984741211 90.5 -17.738000869750977 0 -1
120.19999694824219 89.5 -15.996999740600586 0 -1
110.4000015258789 88.5 -17.35300064086914 0 -1
114.4000015258789 94 -12.970999717712402 0 -1
114.30000305175781 88.0999984741211 -16.952999114990234 0 -1
113.30000305175781 87.30000305175781 -16.698999404907227 0 -1
116.19999694824219 83.4000015258789 -13.576000213623047 0 -1
117.80000305175781 92.19999694824219 -15.89900016784668 0 -1
115.69999694824219 82.69999694824219 -13.348999977111816 0 -1
113.5 79.5 -13.937000274658203 0 -1
117.30000305175781 80.0999984741211 -13.178000450134277 0 -1
110.80000305175781 92.9000015258789 -13.842000007629395 0 -1
119.5999984741211 87.5 -13.932000160217285 0 -1
119.19999694824219 87.0999984741211 -13.91100025177002 0 -1
113.0999984741211 81.4000015258789 -14.795999526977539 0 -1
111.5 89.19999694824219 -17.56599998474121 0 -1
115.19999694824219 94.0999984741211 -13.713000297546387 0 -1
120 76.4000015258789 -12.401000022888184 0 -1
116.9000015258789 82 -12.914999961853027 0 -1
110.69999694824219 87.5 -17.499000549316406 0 -1
112.30000305175781 78.80000305175781 -15.376999855041504 0 -1
112.69999694824219 84.0999984741211 -14.857999801635742 0 -1
120.0999984741211 79 -12.878999710083008 0 -1
110.5 87.30000305175781 -17.68899917602539 0 -1
114 83.0999984741211 -14.38700008392334 0 -1
122 83.5 -13.961999893188477 0 -1
113 86.69999694824219 -15.98900032043457 0 -1
118.0999984741211 77.80000305175781 -13.513999938964844 0 -1
112.5 90.80000305175781 -16.801000595092773 0 -1
112.5999984741211 84.19999694824219 -14.984999656677246 0 -1
113.69999694824219 75.5 -14.46399974822998 0 -1
119.5 77.9000015258789 -12.805000305175781 0 -1
113.9000015258789 90.5 -16.448999404907227 0 -1
116.5999984741211 87.5 -15.293999671936035 0 -1
118.80000305175781 79.0999984741211 -12.736000061035156 0 -1
122.4000015258789 88.5 -14.776000022888184 0 -1
114.9000015258789 75.80000305175781 -13.852999687194824 0 -1
122.0999984741211 86.5999984741211 -14.71500015258789 0 -1
122.19999694824219 82.30000305175781 -14.737000465393066 0 -1
115.30000305175781 81.80000305175781 -13.701000213623047 0 -1
115.4000015258789 91.9000015258789 -14.784000396728516 0 -1
110.69999694824219 87.0999984741211 -16.7549991607666 0 -1
117.5999984741211 86.69999694824219 -14.399999618530273 0 -1
120.80000305175781 84.80000305175781 -13.739999771118164 0 -1
112 88.9000015258789 -17.336000442504883 0 -1
121.0999984741211 86 -14.670000076293945 0 -1
122.30000305175781 77.5 -12.824999809265137 0 -1
114.80000305175781 78.5999984741211 -12.880000114440918 0 -1
116.80000305175781 85.5999984741211 -14.831000328063965 0 -1
110.19999694824219 74.19999694824219 -13.791999816894531 0 -1
114.19999694824219 93.30000305175781 -13.788000106811523 0 -1
113.5 94.9000015258789 -11.381999969482422 0 -1
120.5 81.4000015258789 -14.229000091552734 0 -1
120.4000015258789 84.5 -13.939000129699707 0 -1
122.69999694824219 83.4000015258789 -14.11400032043457 0 -1
115.19999694824219 76.69999694824219 -14.755000114440918 0 -1
117.80000305175781 76.9000015258789 -12.97700023651123 0 -1
118.5999984741211 94.30000305175781 -14.956000328063965 0 -1
120.30000305175781 86.30000305175781 -14.03499984741211 0 -1
111.4000015258789 81.80000305175781 -14.489999771118164 0 -1
116.30000305175781 94.9000015258789 -13.696000099182129 0 -1
114.5 94.0999984741211 -13.86400032043457 0 -1
118.69999694824219 88.69999694824219 -14.878000259399414 0 -1
117.4000015258789 86 -14.343999862670898 0 -1
112.4000015258789 82.5 -14.550999641418457 0 -1
119.9000015258789 77.9000015258789 -12.486000061035156 0 -1
113.9000015258789 77.19999694824219 -15.064000129699707 0 -1
113.5999984741211 91.0999984741211 -15.54699993133545 0 -1
121.30000305175781 86.19999694824219 -14.937000274658203 0 -1
117.19999694824219 90.69999694824219 -16.493999481201172 0 -1
116.30000305175781 79.5 -13.217000007629395 0 -1
116 89.80000305175781 -14.848999977111816 0 -1
112.9000015258789 90.30000305175781 -16.68600082397461 0 -1
122 83.4000015258789 -13.718999862670898 0 -1
111.5 89.0999984741211 -17.548999786376953 0 -1
113 86.5999984741211 -15.940999984741211 0 -1
120.5 90.5999984741211 -16.391000747680664 0 -1
114.9000015258789 93.19999694824219 -14.343000411987305 0 -1
113.9000015258789 90.5999984741211 -16.284000396728516 0 -1
119.30000305175781 95 -13.298999786376953 0 -1
115.69999694824219 82.80000305175781 -13.36299991607666 0 -1
121.4000015258789 92.5 -10.99899959564209 1 -1
115.5999984741211 80.69999694824219 -12.119999885559082 0 -1
113.5999984741211 75.69999694824219 -14.73900032043457 0 -1
110.0999984741211 79.80000305175781 -12.588000297546387 0 -1
116.69999694824219 84.5 -14.307999610900879 0 -1
117 89.9000015258789 -15.656999588012695 0 -1
118.80000305175781 79 -12.8149995803833 0 -1
119.30000305175781 81.69999694824219 -14.083000183105469 0 -1
115.30000305175781 81.9000015258789 -13.720000267028809 0 -1
120.5999984741211 85.69999694824219 -14.166000366210938 0 -1
113.80000305175781 78.30000305175781 -14.916000366210938 0 -1
113.4000015258789 88.9000015258789 -16.941999435424805 0 -1
119.4000015258789 85.30000305175781 -13.631999969482422 0 -1
110.30000305175781 84.19999694824219 -14.831000328063965 0 -1
115.5 84 -14.272000312805176 0 -1
116.80000305175781 85.9000015258789 -14.706000328063965 0 -1
121.69999694824219 82.19999694824219 -13.798999786376953 0 -1
114.19999694824219 93.19999694824219 -13.906000137329102 0 -1
115.4000015258789 90.4000015258789 -14.965999603271484 0 -1
120.80000305175781 84.9000015258789 -13.836999893188477 0 -1
114.80000305175781 78.69999694824219 -12.687999725341797 0 -1
115.9000015258789 89.0999984741211 -14.930000305175781 0 -1
119 94.69999694824219 -13.607000350952148 1 -1
115.5999984741211 81.0999984741211 -12.699000358581543 0 -1
120.9000015258789 91.19999694824219 -10.67300033569336 1 -1
113.9000015258789 77.30000305175781 -14.991000175476074 0 -1
122.5999984741211 86.19999694824219 -14.73900032043457 0 -1
114.5999984741211 80 -13.383000373840332 0 -1
110.0999984741211 79.69999694824219 -12.36400032043457 0 -1
122.5 82.5999984741211 -13.918999671936035 0 -1
111.5999984741211 82.5 -13.92199993133545 0 -1
110 75.9000015258789 -11.795000076293945 0 -1
121.4000015258789 77.0999984741211 -12.196000099182129 0 -1
116.4000015258789 77.4000015258789 -13.192000389099121 0 -1
119 81.4000015258789 -14.194999694824219 0 -1
113.30000305175781 87.5 -16.725000381469727 0 -1
114.5 76.69999694824219 -14.975000381469727 0 -1
112.80000305175781 88.4000015258789 -16.8439998626709 0 -1
118.5999984741211 94.5999984741211 -14.954999923706055 0 -1
118.9000015258789 88.19999694824219 -14.932999610900879 0 -1
121.19999694824219 83.4000015258789 -14.086000442504883 0 -1
116.5999984741211 87.30000305175781 -15.404000282287598 0 -1
116.5 82.80000305175781 -13.406999588012695 0 -1
122.4000015258789 88.69999694824219 -14.776000022888184 0 -1
113.69999694824219 92.80000305175781 -14.972000122070312 0 -1
115.80000305175781 82.4000015258789 -13.373000144958496 0 -1
122.0999984741211 86.4000015258789 -15.151000022888184 0 -1
112.9000015258789 90.19999694824219 -16.73200035095215 0 -1
118 91.0999984741211 -15.979000091552734 0 -1
119.0999984741211 88.80000305175781 -14.777999877929688 0 -1
113.0999984741211 81.19999694824219 -14.972000122070312 0 -1
123 86.0999984741211 -14.89900016784668 0 -1
110.5999984741211 90.19999694824219 -17.670000076293945 0 -1
111.80000305175781 81.69999694824219 -14.628999710083008 0 -1
111.69999694824219 86 -15.95300006866455 0 -1
119.69999694824219 82.0999984741211 -14.119999885559082 0 -1
119.4000015258789 85.19999694824219 -13.883000373840332 0 -1
121.9000015258789 89.30000305175781 -15.279000282287598 0 -1
110.5 87.5 -17.95599937438965 0 -1
110.19999694824219 74 -13.791999816894531 0 -1
117.69999694824219 92.0999984741211 -15.88599967956543 0 -1
119.30000305175781 81.5999984741211 -14.204000473022461 0 -1
117.80000305175781 76.69999694824219 -12.918000221252441 0 -1
110.80000305175781 93 -13.937999725341797 0 -1
120.19999694824219 89.4000015258789 -16.347999572753906 0 -1
113.4000015258789 89 -16.964000701904297 0 -1
111.5999984741211 82.5999984741211 -13.982000350952148 0 -1
120.0999984741211 78.9000015258789 -13.145999908447266 0 -1
112.19999694824219 82.5 -14.552000045776367 0 -1
117.4000015258789 85.9000015258789 -14.319999694824219 0 -1
116.5 82.69999694824219 -13.116000175476074 0 -1
117.0999984741211 84.80000305175781 -14.064000129699707 0 -1
111.5 89.30000305175781 -17.582000732421875 0 -1
122.30000305175781 92.5 -11.0649995803833 1 -1
122.19999694824219 82.5999984741211 -14.324000358581543 0 -1
115.5999984741211 94.4000015258789 -13.706999778747559 0 -1
112.0999984741211 87.9000015258789 -16.98699951171875 0 -1
115.80000305175781 82.19999694824219 -13.229000091552734 0 -1
122.80000305175781 76.5 -12.38700008392334 0 -1
115.4000015258789 77.0999984741211 -12.529999732971191 0 -1
117.30000305175781 80 -12.871000289916992 0 -1
118.9000015258789 88.30000305175781 -14.972999572753906 0 -1
116.0999984741211 84.9000015258789 -14.491999626159668 0 -1
122.0999984741211 86.5 -14.786999702453613 0 -1
121 79.19999694824219 -13.727999687194824 0 -1
120 76.5 -12.204000473022461 0 -1
111.9000015258789 87.0999984741211 -16.25 0 -1
116.4000015258789 92.69999694824219 -14.979999542236328 0 -1
112.69999694824219 84 -14.890999794006348 0 -1
118.5999984741211 94.69999694824219 -14.810999870300293 0 -1
121.4000015258789 77.30000305175781 -12.262999534606934 0 -1
120.4000015258789 84.5999984741211 -13.968999862670898 0 -1
120.5 81.30000305175781 -14.109000205993652 0 -1
114.0999984741211 86.30000305175781 -15.579000473022461 0 -1
116.5999984741211 87.4000015258789 -15.274999618530273 0 -1
112.30000305175781 81 -14.571999549865723 0 -1
122.5 82.30000305175781 -14.430999755859375 0 -1
114.9000015258789 75.9000015258789 -13.836000442504883 0 -1
121.80000305175781 86.5999984741211 -14.892000198364258 0 -1
111.30000305175781 77 -15.293999671936035 0 -1
112.5999984741211 84.30000305175781 -14.989999771118164 0 -1
119 80.9000015258789 -14.168000221252441 0 -1
113.69999694824219 75.4000015258789 -14.420000076293945 0 -1
113.9000015258789 90.4000015258789 -16.284000396728516 0 -1
119.19999694824219 87.5 -14.09000015258789 0 -1
113.5 95 -10.918999671936035 0 -1
117 90.0999984741211 -15.75100040435791 0 -1
114.0999984741211 86.5 -15.777999877929688 0 -1
122.69999694824219 83.5 -14.402000427246094 0 -1
114.9000015258789 77.69999694824219 -13.741000175476074 0 -1
115.0999984741211 78.69999694824219 -12.241999626159668 0 -1
117.5 82.9000015258789 -13.763999938964844 0 -1
122.5999984741211 86.9000015258789 -14.37399959564209 0 -1
116.19999694824219 82.5 -13.437000274658203 0 -1
117.0999984741211 84.9000015258789 -14.081000328063965 0 -1
110.30000305175781 84 -14.831000328063965 0 -1
118.0999984741211 77.4000015258789 -13.11400032043457 0 -1
120.5 90.5 -16.39900016784668 0 -1
113.5 79.5999984741211 -13.843999862670898 0 -1
114.19999694824219 93.4000015258789 -13.906000137329102 0 -1
113.19999694824219 82.5999984741211 -14.45199966430664 0 -1
119.5 78.30000305175781 -12.75 0 -1
117.9000015258789 80.69999694824219 -14.503999710083008 0 -1
120.30000305175781 86.19999694824219 -13.711000442504883 0 -1
111.4000015258789 81.9000015258789 -14.479999542236328 0 -1
116.30000305175781 79.5999984741211 -13.232999801635742 0 -1
112.9000015258789 74.80000305175781 -14.508999824523926 0 -1
118.69999694824219 88.5999984741211 -14.883999824523926 0 -1
115 87.0999984741211 -15.942999839782715 0 -1
114.9000015258789 93.30000305175781 -14.369999885559082 0 -1
112.0999984741211 86.19999694824219 -15.996999740600586 0 -1
113.9000015258789 77.0999984741211 -15.017000198364258 0 -1
122.30000305175781 77.0999984741211 -12.465999603271484 0 -1
112 89.30000305175781 -17.246000289916992 0 -1
118.80000305175781 79.19999694824219 -12.8149995803833 0 -1
116.80000305175781 86 -14.699999809265137 0 -1
116.69999694824219 84.5999984741211 -14.348999977111816 0 -1
120.5 81 -14.336999893188477 0 -1
119 94.30000305175781 -14.227999687194824 1 -1
114.5 94.19999694824219 -12.918999671936035 0 -1
122.9000015258789 82.4000015258789 -13.682000160217285 0 -1
111.9000015258789 87 -16.29400062561035 0 -1
111.80000305175781 80.0999984741211 -14.9399995803833 0 -1
113.80000305175781 78.19999694824219 -14.940999984741211 0 -1
118 93.19999694824219 -15.916000366210938 0 -1
121.19999694824219 83.19999694824219 -14.079000473022461 0 -1
114.69999694824219 90.4000015258789 -15.967000007629395 0 -1
122.5 82.19999694824219 -14.692000389099121 0 -1
115.9000015258789 89.30000305175781 -14.831999778747559 0 -1
121.80000305175781 86.69999694824219 -14.680999755859375 0 -1
122.5999984741211 86.80000305175781 -14.59000015258789 0 -1
119.69999694824219 82.30000305175781 -14.059000015258789 0 -1
115.5 83.9000015258789 -14.232999801635742 0 -1
110.4000015258789 88.4000015258789 -17.35300064086914 0 -1
120.9000015258789 91.30000305175781 -10.779999732971191 1 -1
117.19999694824219 90.80000305175781 -16.608999252319336 0 -1
114.30000305175781 88.19999694824219 -16.986000061035156 0 -1
117.80000305175781 92.0999984741211 -15.96500015258789 0 -1
115.0999984741211 78.5999984741211 -12.416000366210938 0 -1
119.9000015258789 78 -12.692999839782715 0 -1
116 88.4000015258789 -15.958999633789062 0 -1
110 75.80000305175781 -11.701000213623047 0 -1
117.5 82.69999694824219 -13.763999938964844 0 -1
116.9000015258789 82.0999984741211 -12.979999542236328 0 -1
114.4000015258789 94.0999984741211 -12.795999526977539 0 -1
114.5999984741211 80.0999984741211 -13.529999732971191 0 -1
118.5999984741211 94.5 -14.63599967956543 0 -1
110.5 84.5999984741211 -15.371000289916992 0 -1
116.5 89.30000305175781 -15.321000099182129 0 -1
112.5 91.4000015258789 -15.923999786376953 0 -1
114 83 -14.22700023651123 0 -1
122.4000015258789 88.5999984741211 -14.807999610900879 0 -1
114.80000305175781 79 -12.175000190734863 0 -1
115.19999694824219 92.19999694824219 -14.835000038146973 0 -1
111.30000305175781 76.80000305175781 -14.923999786376953 0 -1
121.5999984741211 85.5 -14.829999923706055 0 -1
111.69999694824219 82 -14.560999870300293 0 -1
116.0999984741211 85.0999984741211 -14.567000389099121 0 -1
114.5 93.69999694824219 -13.982000350952148 0 -1
110.69999694824219 87.19999694824219 -16.760000228881836 0 -1
120.19999694824219 89.30000305175781 -15.336000442504883 0 -1
119.5999984741211 87.0999984741211 -13.593000411987305 0 -1
112.80000305175781 88.30000305175781 -16.854000091552734 0 -1
118 93.30000305175781 -15.774999618530273 0 -1
112.5999984741211 84.4000015258789 -14.958999633789062 0 -1
113.5999984741211 90.69999694824219 -16.243999481201172 0 -1
121.5 80 -14.699000358581543 0 -1
121.19999694824219 83.30000305175781 -13.883000373840332 0 -1
114.30000305175781 88.30000305175781 -16.820999145507812 0 -1
114.4000015258789 94.19999694824219 -12.470999717712402 0 -1
113 87 -16.374000549316406 0 -1
111.4000015258789 81.69999694824219 -14.538000106811523 0 -1
110.80000305175781 93.0999984741211 -13.869000434875488 0 -1
121.30000305175781 86.0999984741211 -14.956000328063965 0 -1
114.80000305175781 92.30000305175781 -14.911999702453613 0 -1
119.69999694824219 82.19999694824219 -14.062000274658203 0 -1
118.69999694824219 88.80000305175781 -14.904000282287598 0 -1
120 76.5999984741211 -12.3100004196167 0 -1
113.5999984741211 75.30000305175781 -14.470999717712402 0 -1
119.30000305175781 94.9000015258789 -13.609000205993652 0 -1
116.4000015258789 93.5999984741211 -14.914999961853027 0 -1
113.69999694824219 92.69999694824219 -14.979999542236328 0 -1
112.5 91.5 -14.817000389099121 0 -1
113.69999694824219 75.30000305175781 -14.506999969482422 0 -1
115.80000305175781 82.30000305175781 -13.265000343322754 0 -1
119.5 78.0999984741211 -12.75 0 -1
119.30000305175781 81.5 -14.199000358581543 0 -1
121.5999984741211 85.4000015258789 -14.86299991607666 0 -1
121.4000015258789 77.19999694824219 -12.020000457763672 0 -1
120.80000305175781 84.5 -13.880000114440918 0 -1
116.4000015258789 78.30000305175781 -13.449000358581543 0 -1
120.0999984741211 92.5999984741211 -15.144000053405762 1 -1
114.80000305175781 79.0999984741211 -12.35099983215332 0 -1
114.4000015258789 74.69999694824219 -13.939000129699707 0 -1
115.69999694824219 85.19999694824219 -14.569999694824219 0 -1
121 79.30000305175781 -13.673999786376953 0 -1
120.0999984741211 79.30000305175781 -12.911999702453613 0 -1
119.19999694824219 87.4000015258789 -14.135000228881836 0 -1
119.0999984741211 88.69999694824219 -14.779999732971191 0 -1
115.30000305175781 77.9000015258789 -13.090999603271484 0 -1
116.80000305175781 85.80000305175781 -14.946000099182129 0 -1
121.4000015258789 92.5999984741211 -14.89900016784668 1 -1
123 87 -14.9399995803833 0 -1
117 90 -15.720000267028809 0 -1
122.69999694824219 83.5999984741211 -14.317999839782715 0 -1
116.0999984741211 85 -14.529999732971191 0 -1
112.30000305175781 80.9000015258789 -14.63700008392334 0 -1
122 83.30000305175781 -13.862000465393066 0 -1
116.69999694824219 87.5 -15.331999778747559 0 -1
119 81 -14.173999786376953 0 -1
113.19999694824219 82.80000305175781 -14.411999702453613 0 -1
114.5 76.30000305175781 -14.64900016784668 0 -1
115.5999984741211 81 -12.319000244140625 0 -1
118.0999984741211 77.5 -13.395000457763672 0 -1
120.5 90.19999694824219 -16.416000366210938 0 -1
113.5 79.69999694824219 -13.937000274658203 0 -1
114.0999984741211 86.4000015258789 -15.836999893188477 0 -1
115.30000305175781 78 -12.805999755859375 0 -1
121.69999694824219 82.4000015258789 -14.449000358581543 0 -1
115.4000015258789 90.5 -14.968999862670898 0 -1
120.80000305175781 84.5999984741211 -13.739999771118164 0 -1
121.0999984741211 85.80000305175781 -14.670000076293945 0 -1
117.5 82.80000305175781 -13.697999954223633 0 -1
120.5 80.9000015258789 -14.312000274658203 0 -1
122.30000305175781 77.30000305175781 -12.708999633789062 0 -1
122.5999984741211 87 -14.612000465393066 0 -1
122.4000015258789 88.80000305175781 -14.807999610900879 0 -1
122.0999984741211 86.30000305175781 -14.786999702453613 0 -1
110.4000015258789 88.19999694824219 -17.2810001373291 0 -1
115.19999694824219 92.4000015258789 -14.835000038146973 0 -1
112.19999694824219 83.4000015258789 -14.541000366210938 0 -1
119.30000305175781 94.80000305175781 -13.454000473022461 0 -1
114.9000015258789 77.80000305175781 -13.946999549865723 0 -1
110.0999984741211 79.5999984741211 -12.557000160217285 0 -1
117.19999694824219 75.5 -13.151000022888184 0 -1
116.9000015258789 82.80000305175781 -13.053000450134277 0 -1
119.9000015258789 78.5999984741211 -12.75 0 -1
113.4000015258789 88.5999984741211 -16.885000228881836 0 -1
111.80000305175781 80 -13.979000091552734 0 -1
113.80000305175781 78.0999984741211 -14.977999687194824 0 -1
118.80000305175781 79.30000305175781 -12.736000061035156 0 -1
115.5999984741211 94.30000305175781 -13.906000137329102 0 -1
119.4000015258789 85.0999984741211 -13.767000198364258 0 -1
121.30000305175781 86.4000015258789 -14.515999794006348 0 -1
121.5 80.19999694824219 -14.682000160217285 0 -1
114.80000305175781 92.4000015258789 -14.980999946594238 0 -1
116.30000305175781 76.0999984741211 -13.62399959564209 0 -1
113.0999984741211 81.0999984741211 -14.994000434875488 0 -1
122 83.19999694824219 -14.763999938964844 0 -1
110 76.19999694824219 -11.734999656677246 0 -1
117.80000305175781 76.5999984741211 -12.932000160217285 0 -1
110.5999984741211 90.30000305175781 -17.68199920654297 0 -1
117.5999984741211 86.5999984741211 -14.531000137329102 0 -1
117 89.19999694824219 -15.223999977111816 0 -1
111.5999984741211 85.30000305175781 -15.178000450134277 0 -1
115.0999984741211 78.80000305175781 -12.416000366210938 0 -1
117.69999694824219 92 -16.795000076293945 0 -1
112.4000015258789 82.5999984741211 -14.53499984741211 0 -1
114.30000305175781 89.9000015258789 -16.84000015258789 0 -1
110.5 84.5 -15.187999725341797 0 -1
110.0999984741211 79.5 -12.590999603271484 0 -1
117.30000305175781 79.9000015258789 -12.876999855041504 0 -1
117.4000015258789 85.80000305175781 -14.51200008392334 0 -1
122.5 82.4000015258789 -14.48900032043457 0 -1
116.0999984741211 85.19999694824219 -14.788000106811523 0 -1
112.9000015258789 90.5999984741211 -16.600000381469727 0 -1
113.69999694824219 91.5999984741211 -15.979999542236328 0 -1
122.19999694824219 82.5 -14.649999618530273 0 -1
122.30000305175781 92.5999984741211 -11.151000022888184 1 -1
115.5 83.80000305175781 -13.855999946594238 0 -1
112.69999694824219 84.4000015258789 -14.949999809265137 0 -1
121.4000015258789 76.9000015258789 -12.196000099182129 0 -1
121 89.30000305175781 13.25 2 -1
117.0999984741211 84 -13.701000213623047 0 -1
119.80000305175781 90 -15.869000434875488 0 -1
115.80000305175781 82.0999984741211 -13.192999839782715 0 -1
111.5 86.9000015258789 -16.31399917602539 0 -1
115.4000015258789 90.5999984741211 -14.927000045776367 0 -1
117.4000015258789 85.19999694824219 -14.336999893188477 0 -1
121.0999984741211 85.69999694824219 -14.574000358581543 0 -1
116.5999984741211 84.69999694824219 -14.29699993133545 0 -1
119.69999694824219 82.4000015258789 -13.762999534606934 0 -1
115.69999694824219 85 -14.569999694824219 0 -1
115.5999984741211 80.9000015258789 -12.331000328063965 0 -1
111.30000305175781 76.9000015258789 -14.836000442504883 0 -1
120.9000015258789 91.4000015258789 -10.565999984741211 1 -1
114.4000015258789 92.19999694824219 -14.878000259399414 0 -1
113.80000305175781 79.5999984741211 -13.850000381469727 0 -1
115.4000015258789 77.19999694824219 -12.795999526977539 0 -1
114.5999984741211 80.19999694824219 -13.53600025177002 0 -1
119.4000015258789 85 -13.76099967956543 0 -1
115 87.19999694824219 -15.895999908447266 0 -1
123 86.80000305175781 -14.9399995803833 0 -1
113.5999984741211 90.80000305175781 -15.64900016784668 0 -1
117.19999694824219 90.4000015258789 -15.928999900817871 0 -1
112.30000305175781 81.0999984741211 -14.96399974822998 0 -1
111.69999694824219 82.0999984741211 -14.515999794006348 0 -1
113.4000015258789 88.69999694824219 -16.941999435424805 0 -1
115.19999694824219 92.30000305175781 -14.87399959564209 0 -1
110.30000305175781 84.4000015258789 -15.187000274658203 0 -1
114.19999694824219 93 -14.793000221252441 0 -1
112.9000015258789 90.5 -16.822999954223633 0 -1
119 94.4000015258789 -14.302000045776367 1 -1
114.4000015258789 76.80000305175781 -14.975000381469727 0 -1
112.80000305175781 88.19999694824219 -16.885000228881836 0 -1
118.9000015258789 88.4000015258789 -14.88700008392334 0 -1
113.5999984741211 75.4000015258789 -14.413000106811523 0 -1
114.80000305175781 78.9000015258789 -12.494999885559082 0 -1
120.5999984741211 85.80000305175781 -14.088000297546387 0 -1
114.80000305175781 92.19999694824219 -14.980999946594238 0 -1
121.9000015258789 89.0999984741211 -15.279000282287598 0 -1
110.69999694824219 76.5999984741211 -12.229999542236328 0 -1
112.19999694824219 83.19999694824219 -14.621000289916992 0 -1
117.5 82.0999984741211 -13.583999633789062 0 -1
114.9000015258789 77.5999984741211 -13.946999549865723 0 -1
114.5 93.80000305175781 -13.949999809265137 0 -1
117.9000015258789 80.80000305175781 -14.656000137329102 0 -1
121.19999694824219 83.0999984741211 -14.109000205993652 0 -1
120.0999984741211 92.5 -15.20199966430664 1 -1
116.69999694824219 87.30000305175781 -15.267000198364258 0 -1
115.69999694824219 85.0999984741211 -14.571000099182129 0 -1
120 76.69999694824219 -12.33899974822998 0 -1
122.9000015258789 82.30000305175781 -13.788999557495117 0 -1
119.80000305175781 90.0999984741211 -15.793999671936035 0 -1
112 89.19999694824219 -17.266000747680664 0 -1
113.19999694824219 82.69999694824219 -14.432000160217285 0 -1
114.5 76.4000015258789 -14.843000411987305 0 -1
111.5 86.80000305175781 -16.264999389648438 0 -1
119.5 78.19999694824219 -12.791999816894531 0 -1
116.4000015258789 78.19999694824219 -13.559000015258789 0 -1
120.5 81.0999984741211 -14.312000274658203 0 -1
119.5999984741211 87.19999694824219 -13.60099983215332 0 -1
113.80000305175781 94.9000015258789 -11.567000389099121 0 -1
115.4000015258789 77.30000305175781 -12.529999732971191 0 -1
123 86.9000015258789 -14.979999542236328 0 -1
118.9000015258789 88.5 -14.927000045776367 0 -1
115.9000015258789 89.4000015258789 -14.946999549865723 0 -1
122.69999694824219 83.69999694824219 -14.402000427246094 0 -1
120.0999984741211 79.19999694824219 -13.222999572753906 0 -1
117.69999694824219 91.30000305175781 -16.170000076293945 0 -1
111.9000015258789 86.9000015258789 -16.253000259399414 0 -1
114.9000015258789 95 -11.793000221252441 0 -1
119.0999984741211 88.5999984741211 -14.777999877929688 0 -1
114.4000015258789 76.9000015258789 -14.932000160217285 0 -1
118.5999984741211 94.9000015258789 -13.805000305175781 0 -1
113.5 79.80000305175781 -13.843999862670898 0 -1
113.30000305175781 87.0999984741211 -16.35700035095215 0 -1
117.80000305175781 92 -16.749000549316406 0 -1
121.80000305175781 86.80000305175781 -14.892000198364258 0 -1
113.0999984741211 80.9000015258789 -14.654000282287598 0 -1
116.5999984741211 84.5 -14.22599983215332 0 -1
117.5999984741211 86.4000015258789 -14.3149995803833 0 -1
119 81.0999984741211 -14.180999755859375 0 -1
119.19999694824219 87.30000305175781 -14.09000015258789 0 -1
120.5999984741211 86 -14.342000007629395 0 -1
112.19999694824219 83.30000305175781 -14.541999816894531 0 -1
119.19999694824219 87.80000305175781 -14.407999992370605 0 -1
112.69999694824219 84.30000305175781 -14.923999786376953 0 -1
110.5 84.69999694824219 -15.461999893188477 0 -1
119.9000015258789 78.69999694824219 -12.824000358581543 0 -1
122.30000305175781 77.19999694824219 -12.633000373840332 0 -1
116 88.5 -15.96500015258789 0 -1
122.0999984741211 86.19999694824219 -14.883000373840332 0 -1
110.4000015258789 88.30000305175781 -17.326000213623047 0 -1
115.19999694824219 92.5 -14.236000061035156 0 -1
122.9000015258789 82.19999694824219 -13.682000160217285 0 -1
117.30000305175781 80.80000305175781 -12.88599967956543 0 -1
121 94.30000305175781 -14.920000076293945 0 -1
120.4000015258789 84.80000305175781 -13.968999862670898 0 -1
114.19999694824219 77.5999984741211 -14.826000213623047 0 -1
113.9000015258789 93.9000015258789 -13.616999626159668 0 -1
118 93.4000015258789 -14.980999946594238 0 -1
119 95 -13.380999565124512 0 -1
118.0999984741211 77.0999984741211 -13.029999732971191 0 -1
111.4000015258789 82.0999984741211 -14.277999877929688 0 -1
111.19999694824219 92.30000305175781 -13.89799976348877 0 -1
121.30000305175781 86.5 -14.494999885559082 0 -1
116.5 89.19999694824219 -15.331000328063965 0 -1
116.30000305175781 76.19999694824219 -13.66100025177002 0 -1
114.0999984741211 87.5999984741211 -16.82200050354004 0 -1
122.5 82 -13.848999977111816 0 -1
116.4000015258789 93.5 -14.963000297546387 0 -1
118.69999694824219 88.4000015258789 -14.88700008392334 0 -1
112.5999984741211 79.4000015258789 -14.835000038146973 0 -1
112 89.0999984741211 -17.253000259399414 0 -1
117 89.0999984741211 -15.133999824523926 0 -1
122.30000305175781 76.9000015258789 -12.432999610900879 0 -1
122.5999984741211 86.5999984741211 -14.59000015258789 0 -1
115 87.4000015258789 -15.968999862670898 0 -1
114 82.9000015258789 -14.244999885559082 0 -1
113 86.9000015258789 -15.982000350952148 0 -1
111.9000015258789 86.80000305175781 -16.174999237060547 0 -1
122.80000305175781 94.19999694824219 -12.416999816894531 1 -1
121.4000015258789 76.80000305175781 -12.236000061035156 0 -1
112.0999984741211 86.0999984741211 -15.946000099182129 0 -1
116.9000015258789 82.69999694824219 -13.027999877929688 0 -1
111.5 87 -16.541000366210938 0 -1
121.80000305175781 86.9000015258789 -14.670999526977539 0 -1
110 76.0999984741211 -11.961999893188477 0 -1
117.5999984741211 86.5 -14.310999870300293 0 -1
111.19999694824219 92.4000015258789 -13.880000114440918 0 -1
116.5 89.0999984741211 -15.1850004196167 0 -1
116.5999984741211 84.5999984741211 -14.267000198364258 0 -1
119.69999694824219 82.5 -13.678999900817871 0 -1
113.9000015258789 76.5 -15.40999984741211 0 -1
116.19999694824219 82.5999984741211 -13.366999626159668 0 -1
115.5 83.69999694824219 -13.866000175476074 0 -1
117.9000015258789 79.9000015258789 -13.145999908447266 0 -1
121.4000015258789 92.19999694824219 -10.779000282287598 1 -1
111.30000305175781 87 -16.514999389648438 0 -1
113.80000305175781 79.5 -13.730999946594238 0 -1
115.0999984741211 78.4000015258789 -12.366999626159668 0 -1
111.80000305175781 79.9000015258789 -13.906000137329102 0 -1
120.30000305175781 86.0999984741211 -14.140000343322754 0 -1
115.5999984741211 81.4000015258789 -12.809000015258789 0 -1
116.80000305175781 85.19999694824219 -14.63700008392334 0 -1
120.19999694824219 89.0999984741211 -15.336000442504883 0 -1
122.30000305175781 92.19999694824219 -11.269000053405762 1 -1
122.19999694824219 82.9000015258789 -13.67199993133545 0 -1
114.5999984741211 80.30000305175781 -13.529999732971191 0 -1
118 93.5 -14.982000350952148 0 -1
119.30000305175781 81.4000015258789 -14.24899959564209 0 -1
121.69999694824219 82 -13.798999786376953 0 -1
112.5 91.5999984741211 -14.680000305175781 0 -1
117.19999694824219 90.5 -16.209999084472656 0 -1
113.69999694824219 91.5 -14.937999725341797 0 -1
119.4000015258789 86 -13.682000160217285 0 -1
113 86.80000305175781 -15.961000442504883 0 -1
117.80000305175781 91.80000305175781 -15.970000267028809 0 -1
113.5999984741211 75.5 -14.420000076293945 0 -1
120.5 90.30000305175781 -16.39900016784668 0 -1
111.69999694824219 82.19999694824219 -14.508000373840332 0 -1
115.30000305175781 78.0999984741211 -12.600000381469727 0 -1
115.4000015258789 76.80000305175781 -13.595000267028809 0 -1
119.5 78.5 -12.732999801635742 0 -1
114.5 93.9000015258789 -13.982000350952148 0 -1
120.5999984741211 85.9000015258789 -14.21500015258789 0 -1
121.19999694824219 83 -14.263999938964844 0 -1
116.69999694824219 87.4000015258789 -15.307999610900879 0 -1
114 82.69999694824219 -14.152999877929688 0 -1
122 83.0999984741211 -13.67199993133545 0 -1
113.19999694824219 82.9000015258789 -14.527000427246094 0 -1
115.5999984741211 94.69999694824219 -13.289999961853027 0 -1
112.80000305175781 88.0999984741211 -16.875 0 -1
114.5 76.5 -14.64900016784668 0 -1
119.30000305175781 81.30000305175781 -14.222000122070312 0 -1
120.80000305175781 84.69999694824219 -13.901000022888184 0 -1
121.30000305175781 86.30000305175781 -14.956000328063965 0 -1
116.9000015258789 82.9000015258789 -13.07699966430664 0 -1
122.4000015258789 88.9000015258789 -15.770999908447266 0 -1
113.80000305175781 94.80000305175781 -11.456999778747559 0 -1
111.5999984741211 85.4000015258789 -15.559000015258789 0 -1
121.69999694824219 82.0999984741211 -13.744000434875488 0 -1
120.4000015258789 84.0999984741211 -13.744000434875488 0 -1
122.69999694824219 83.80000305175781 -14.597999572753906 0 -1
110.4000015258789 88.0999984741211 -17.236000061035156 0 -1
119.4000015258789 85.9000015258789 -13.682999610900879 0 -1
117.80000305175781 76.5 -12.956999778747559 0 -1
120.0999984741211 92.9000015258789 -14.824000358581543 1 -1
112.4000015258789 81.19999694824219 -14.805000305175781 0 -1
113.4000015258789 88.80000305175781 -16.999000549316406 0 -1
114.19999694824219 77.80000305175781 -14.881999969482422 0 -1
113.9000015258789 93.69999694824219 -13.963000297546387 0 -1
110.30000305175781 84.30000305175781 -14.949999809265137 0 -1
120.19999694824219 90.0999984741211 -15.786999702453613 0 -1
111 93.0999984741211 -13.901000022888184 0 -1
114.0999984741211 87.80000305175781 -16.920000076293945 0 -1
116.4000015258789 78.0999984741211 -12.541000366210938 0 -1
119.5999984741211 87.9000015258789 -14.303999900817871 0 -1
119 81.69999694824219 -14.107999801635742 0 -1
113.0999984741211 81 -14.670999526977539 0 -1
115.69999694824219 85.4000015258789 -14.72599983215332 0 -1
115.5999984741211 81.30000305175781 -12.699000358581543 0 -1
117 89.30000305175781 -15.225000381469727 0 -1
119.30000305175781 94.69999694824219 -13.609000205993652 1 -1
115.5999984741211 94.5999984741211 -13.663999557495117 0 -1
119.0999984741211 88.5 -14.802000045776367 0 -1
111.30000305175781 86.80000305175781 -16.173999786376953 0 -1
113.5999984741211 90.4000015258789 -16.926000595092773 0 -1
116.30000305175781 75.80000305175781 -13.810999870300293 0 -1
117.0999984741211 84.0999984741211 -13.803000450134277 0 -1
115.80000305175781 82 -13.229000091552734 0 -1
115.4000015258789 76.9000015258789 -13.668999671936035 0 -1
110.0999984741211 79.4000015258789 -12.557000160217285 0 -1
120.0999984741211 79.5999984741211 -13.333999633789062 0 -1
121 79 -13.565999984741211 0 -1
121.4000015258789 77 -12.204999923706055 0 -1
113.30000305175781 87.19999694824219 -16.4060001373291 0 -1
115.30000305175781 78.19999694824219 -12.520999908447266 0 -1
117.5999984741211 86.30000305175781 -14.229000091552734 0 -1
111.19999694824219 92.19999694824219 -13.95199966430664 0 -1
121.0999984741211 85.5999984741211 -14.48900032043457 0 -1
114.80000305175781 92.5999984741211 -14.842000007629395 0 -1
113.9000015258789 76.30000305175781 -15.41100025177002 0 -1
116.4000015258789 93.4000015258789 -14.914999961853027 0 -1
116.19999694824219 82.80000305175781 -13.366999626159668 0 -1
112.30000305175781 81.19999694824219 -14.630000114440918 0 -1
121 94.4000015258789 -14.973999977111816 0 -1
116.5999984741211 84.9000015258789 -14.35099983215332 0 -1
114.4000015258789 92.30000305175781 -14.746999740600586 0 -1
111.5999984741211 85.5 -15.947999954223633 0 -1
114.19999694824219 77.69999694824219 -14.899999618530273 0 -1
113.9000015258789 93.80000305175781 -13.758000373840332 0 -1
119.19999694824219 87.69999694824219 -14.378999710083008 0 -1
115 87.30000305175781 -15.942999839782715 0 -1
120.9000015258789 91.5999984741211 -10.984999656677246 1 -1
112.0999984741211 86.4000015258789 -15.996999740600586 0 -1
111 93 -13.968999862670898 0 -1
114.9000015258789 77.5 -13.72700023651123 0 -1
115.69999694824219 85.5 -14.722999572753906 0 -1
116.80000305175781 85 -14.487000465393066 0 -1
115.4000015258789 90.19999694824219 -15.392999649047852 0 -1
113.5 94.30000305175781 -12.668000221252441 0 -1
112.5999984741211 79.5 -14.616000175476074 0 -1
114.30000305175781 90 -16.895999908447266 0 -1
112.9000015258789 90.4000015258789 -16.628000259399414 0 -1
122.30000305175781 76.80000305175781 -12.237000465393066 0 -1
113.0999984741211 81.80000305175781 -14.543000221252441 0 -1
118.0999984741211 77.19999694824219 -13.163999557495117 0 -1
110.19999694824219 75.69999694824219 -11.682000160217285 0 -1
110.69999694824219 76.69999694824219 -12.267999649047852 0 -1
117.0999984741211 84.19999694824219 -13.701000213623047 0 -1
112.19999694824219 83.0999984741211 -14.61299991607666 0 -1
120.5 91 -14.97599983215332 1 -1
113.5 78.9000015258789 -14.907999992370605 0 -1
112 89.5 -17.437000274658203 0 -1
117.4000015258789 85.0999984741211 -14.282999992370605 0 -1
120.5 81.69999694824219 -14.246000289916992 0 -1
119.9000015258789 78.80000305175781 -12.75 0 -1
118.80000305175781 79.4000015258789 -12.871999740600586 0 -1
114.4000015258789 92.4000015258789 -14.986000061035156 0 -1
113.80000305175781 79.4000015258789 -13.850000381469727 0 -1
117.19999694824219 90.5999984741211 -16.2810001373291 0 -1
116.69999694824219 87.19999694824219 -15.307999610900879 0 -1
113.9000015258789 76.4000015258789 -15.411999702453613 0 -1
116.19999694824219 82.69999694824219 -13.340999603271484 0 -1
122.19999694824219 82.69999694824219 -14.343000411987305 0 -1
122.30000305175781 92.4000015258789 -11.269000053405762 1 -1
115.5 83.5999984741211 -13.855999946594238 0 -1
113.5999984741211 75.0999984741211 -14.329000473022461 0 -1
117.80000305175781 76.30000305175781 -12.9350004196167 0 -1
112.4000015258789 81.4000015258789 -14.821000099182129 0 -1
114.9000015258789 94.9000015258789 -12.447999954223633 0 -1
114.4000015258789 77 -14.871999740600586 0 -1
114.5 93.5 -13.6850004196167 0 -1
121.5 80.30000305175781 -14.515999794006348 0 -1
110.0999984741211 78.30000305175781 -12.96500015258789 0 -1
112.0999984741211 86.5 -15.996000289916992 0 -1
115.9000015258789 89.5 -14.831999778747559 0 -1
110.5 84.80000305175781 -15.656999588012695 0 -1
114.30000305175781 90.0999984741211 -16.954999923706055 0 -1
114.5999984741211 80.4000015258789 -13.666000366210938 0 -1
112.69999694824219 84.69999694824219 -14.70300006866455 0 -1
116 88.0999984741211 -15.947999954223633 0 -1
111.69999694824219 82.30000305175781 -14.517000198364258 0 -1
113.69999694824219 91.4000015258789 -15.932000160217285 0 -1
117.80000305175781 91.9000015258789 -16.6560001373291 0 -1
115.4000015258789 90.30000305175781 -15.234000205993652 0 -1
117.69999694824219 91.19999694824219 -16.200000762939453 0 -1
111.80000305175781 80.30000305175781 -14.9399995803833 0 -1
113.30000305175781 87.9000015258789 -16.67300033569336 0 -1
116.0999984741211 85.30000305175781 -14.513999938964844 0 -1
112.9000015258789 75.5 -14.394000053405762 0 -1
122.9000015258789 82.0999984741211 -13.788999557495117 0 -1
117.9000015258789 80.0999984741211 -12.87399959564209 0 -1
118.9000015258789 88.5999984741211 -14.946999549865723 0 -1
120.5999984741211 85.0999984741211 -14.23900032043457 0 -1
111.9000015258789 86.69999694824219 -16.18899917602539 0 -1
117.30000305175781 80.69999694824219 -12.998000144958496 0 -1
117.4000015258789 85 -14.227999687194824 0 -1
112.5 91.19999694824219 -15.923999786376953 0 -1
120.4000015258789 84.19999694824219 -14.279999732971191 0 -1
112.30000305175781 81.4000015258789 -14.630000114440918 0 -1
114.19999694824219 77.4000015258789 -14.74899959564209 0 -1
118 93.5999984741211 -14.980999946594238 0 -1
120.30000305175781 87 -13.746999740600586 0 -1
114.80000305175781 79.30000305175781 -12.194000244140625 0 -1
115.9000015258789 89.69999694824219 -14.848999977111816 0 -1
111.4000015258789 82 -14.317000389099121 0 -1
114.0999984741211 87.69999694824219 -16.975000381469727 0 -1
122.69999694824219 83.9000015258789 -14.748000144958496 0 -1
115.69999694824219 85.30000305175781 -14.571000099182129 0 -1
118.69999694824219 88.5 -14.906999588012695 0 -1
122.30000305175781 77 -12.432000160217285 0 -1
111.5 86.5999984741211 -15.958999633789062 0 -1
114.4000015258789 77.0999984741211 -14.932000160217285 0 -1
110.30000305175781 83.5999984741211 -14.623000144958496 0 -1
116.5 89.5 -15.461999893188477 0 -1
120.19999694824219 90 -15.840999603271484 0 -1
116.4000015258789 78 -12.939000129699707 0 -1
114 82.80000305175781 -14.33899974822998 0 -1
112.80000305175781 89 -17.259000778198242 0 -1
120.0999984741211 92.80000305175781 -15.085000038146973 1 -1
112.4000015258789 81.30000305175781 -14.812999725341797 0 -1
114.19999694824219 93.0999984741211 -13.998000144958496 0 -1
115 87.5 -16.684999465942383 0 -1
111.30000305175781 86.9000015258789 -16.31599998474121 0 -1
112.5999984741211 79.5999984741211 -14.835000038146973 0 -1
118.9000015258789 88.69999694824219 -14.871000289916992 0 -1
120.5999984741211 85 -14.288999557495117 0 -1
116.30000305175781 75.9000015258789 -13.581000328063965 0 -1
111.5999984741211 85 -14.939000129699707 0 -1
119 81.80000305175781 -14.244999885559082 0 -1
122.80000305175781 76.5999984741211 -12.456999778747559 0 -1
113.19999694824219 82 -14.515999794006348 0 -1
121.30000305175781 87.69999694824219 -14.678999900817871 0 -1
121.5 81.5 -14.562999725341797 0 -1
112.5 91.30000305175781 -14.805000305175781 0 -1
119.0999984741211 88.4000015258789 -14.781000137329102 0 -1
112.9000015258789 75.4000015258789 -14.277000427246094 0 -1
122.9000015258789 82 -14.003999710083008 0 -1
117.9000015258789 80 -12.932999610900879 0 -1
113.5999984741211 90.5 -16.86400032043457 0 -1
111.9000015258789 86.5999984741211 -15.937000274658203 0 -1
117.5 82 -14.758000373840332 0 -1
113.9000015258789 94.0999984741211 -12.984000205993652 0 -1
121.80000305175781 87 -14.682000160217285 0 -1
117.5999984741211 86.19999694824219 -14.237000465393066 0 -1
121 79.0999984741211 -13.673999786376953 0 -1
121.4000015258789 92.30000305175781 -10.99899959564209 1 -1
110 77.5 -11.677000045776367 0 -1
120.5 81.9000015258789 -14.263999938964844 0 -1
119.5999984741211 88 -14.430999755859375 0 -1
122.30000305175781 92.30000305175781 -11.217000007629395 1 -1
122.19999694824219 82.80000305175781 -14.684000015258789 0 -1
119.19999694824219 87.5999984741211 -14.135000228881836 0 -1
116 88.30000305175781 -15.96500015258789 0 -1
116.19999694824219 82.9000015258789 -13.477999687194824 0 -1
117.80000305175781 91.69999694824219 -16.014999389648438 0 -1
120.5 90.9000015258789 -14.956999778747559 1 -1
114.5 76.0999984741211 -14.663000106811523 0 -1
113.0999984741211 81.9000015258789 -14.289999961853027 0 -1
118.5999984741211 94.80000305175781 -13.972999572753906 0 -1
118.0999984741211 77.30000305175781 -13.335000038146973 0 -1
120.80000305175781 84.30000305175781 -13.880000114440918 0 -1
121.5 82.5 -14.208999633789062 0 -1
116.9000015258789 82.5 -13.168000221252441 0 -1
112.19999694824219 83 -14.550999641418457 0 -1
116.4000015258789 93.30000305175781 -14.934000015258789 0 -1
116.80000305175781 85.0999984741211 -14.536999702453613 0 -1
113.5 79 -14.902999877929688 0 -1
120.0999984741211 79.5 -12.911999702453613 0 -1
111.19999694824219 92.5999984741211 -14.178000450134277 0 -1
113.9000015258789 76.69999694824219 -15.326000213623047 0 -1
114 82.5999984741211 -14.34000015258789 0 -1
122.4000015258789 89 -14.928999900817871 0 -1
118.80000305175781 79.5999984741211 -12.871999740600586 0 -1
122.0999984741211 86.0999984741211 -15.21399974822998 0 -1
113 86.19999694824219 -15.907999992370605 0 -1
115.19999694824219 92.5999984741211 -14.342000007629395 0 -1
111.5999984741211 85.0999984741211 -14.991999626159668 0 -1
113.9000015258789 94.19999694824219 -12.70199966430664 0 -1
119.5 78.4000015258789 -12.675999641418457 0 -1
120.5999984741211 85.19999694824219 -14.288999557495117 0 -1
113.4000015258789 88.4000015258789 -16.89900016784668 0 -1
115.80000305175781 82.9000015258789 -13.482000350952148 0 -1
116.0999984741211 85.5 -14.91100025177002 0 -1
116.80000305175781 85.4000015258789 -14.692000389099121 0 -1
121.0999984741211 79.30000305175781 -13.781999588012695 0 -1
112.0999984741211 86.30000305175781 -15.996000289916992 0 -1
114.30000305175781 89.5999984741211 -16.895000457763672 0 -1
118.80000305175781 79.5 -13.486000061035156 0 -1
112.9000015258789 90.80000305175781 -16.152000427246094 0 -1
119.30000305175781 81.19999694824219 -14.22599983215332 0 -1
118.0999984741211 76.80000305175781 -12.810999870300293 0 -1
120.80000305175781 84.4000015258789 -13.833999633789062 0 -1
120.4000015258789 84 -14.067000389099121 0 -1
122.5 82.0999984741211 -14.663000106811523 0 -1
113.69999694824219 91.30000305175781 -14.937999725341797 0 -1
115.5 83.5 -13.866000175476074 0 -1
110.4000015258789 88 -17.19099998474121 0 -1
119.4000015258789 85.80000305175781 -13.687000274658203 0 -1
117.80000305175781 76.4000015258789 -12.932000160217285 0 -1
121.19999694824219 81.80000305175781 -14.114999771118164 0 -1
120.30000305175781 86.80000305175781 -14.366000175476074 0 -1
117.4000015258789 85.5 -14.571000099182129 0 -1
114.0999984741211 87.9000015258789 -16.952999114990234 0 -1
113.5 94.4000015258789 -12.534000396728516 0 -1
119.9000015258789 78.4000015258789 -13.75100040435791 0 -1
115.5999984741211 81.19999694824219 -12.696999549865723 0 -1
121.4000015258789 76.5999984741211 -12.236000061035156 0 -1
117.19999694824219 90.19999694824219 -15.928999900817871 0 -1
111.80000305175781 80.19999694824219 -14.979999542236328 0 -1
114.5999984741211 80.5 -13.930999755859375 0 -1
122.5999984741211 86.69999694824219 -14.446999549865723 0 -1
119.80000305175781 95 5.126999855041504 3 -1
113 86.0999984741211 -15.854999542236328 0 -1
112.69999694824219 84.5999984741211 -14.958000183105469 0 -1
122.19999694824219 83.0999984741211 -13.67199993133545 0 -1
117.9000015258789 80.19999694824219 -12.932999610900879 0 -1
121.4000015258789 87.9000015258789 -14.70199966430664 0 -1
112.4000015258789 81 -14.87600040435791 0 -1
116.4000015258789 77.9000015258789 -12.541000366210938 0 -1
117 89.4000015258789 -15.22599983215332 0 -1
117.30000305175781 80.5999984741211 -12.96500015258789 0 -1
111.69999694824219 82.4000015258789 -14.562999725341797 0 -1
114.30000305175781 89.69999694824219 -16.947999954223633 0 -1
114.80000305175781 79.19999694824219 -12.307999610900879 0 -1
119.0999984741211 88.30000305175781 -14.802000045776367 0 -1
115.4000015258789 77 -12.795999526977539 0 -1
115.30000305175781 78.30000305175781 -12.581999778747559 0 -1
115.0999984741211 78.5 -12.687999725341797 0 -1
115.5999984741211 81.5999984741211 -12.920000076293945 0 -1
120.9000015258789 90.69999694824219 -14.121000289916992 1 -1
114.19999694824219 92.69999694824219 -14.87399959564209 0 -1
113.30000305175781 88 -16.549999237060547 0 -1
113.4000015258789 88.5 -16.94300079345703 0 -1
116.0999984741211 85.4000015258789 -14.505999565124512 0 -1
112.30000305175781 81.30000305175781 -14.680999755859375 0 -1
119.4000015258789 85.69999694824219 -13.6850004196167 0 -1
121.9000015258789 88.80000305175781 -15.036999702453613 0 -1
122 82.9000015258789 -13.67199993133545 0 -1
115.5999984741211 94.5 -13.697999954223633 0 -1
117.69999694824219 91.5999984741211 -16.155000686645508 0 -1
110.69999694824219 76.30000305175781 -14.682999610900879 0 -1
116.69999694824219 87.0999984741211 -15.267000198364258 0 -1
120.30000305175781 86.9000015258789 -13.72599983215332 0 -1
122.80000305175781 77 -12.652999877929688 0 -1
115.9000015258789 89.5999984741211 -14.9350004196167 0 -1
110.30000305175781 83.69999694824219 -14.638999938964844 0 -1
111 92.9000015258789 -14.104999542236328 0 -1
117.4000015258789 85.4000015258789 -14.343000411987305 0 -1
120.19999694824219 89.9000015258789 -15.814000129699707 0 -1
119.69999694824219 82.5999984741211 -13.762999534606934 0 -1
121.19999694824219 81.9000015258789 -14.003999710083008 0 -1
111.30000305175781 86.69999694824219 -16.134000778198242 0 -1
117.5 82.4000015258789 -13.711999893188477 0 -1
119.30000305175781 94.5 -13.760000228881836 1 -1
113.80000305175781 79.80000305175781 -13.493000030517578 0 -1
113.5999984741211 90.5999984741211 -16.44300079345703 0 -1
117.0999984741211 84.30000305175781 -13.982999801635742 0 -1
114.9000015258789 77.4000015258789 -13.97599983215332 0 -1
114.5 93.5999984741211 -13.906999588012695 0 -1
120.5 91.0999984741211 -14.956999778747559 1 -1
121.0999984741211 84.4000015258789 -13.722000122070312 0 -1
112.9000015258789 90.69999694824219 -16.822999954223633 0 -1
115.4000015258789 77.5999984741211 -12.461000442504883 0 -1
119.30000305175781 81.0999984741211 -14.192999839782715 0 -1
121.30000305175781 76.5 -12.28499984741211 0 -1
113.0999984741211 81.69999694824219 -14.618000030517578 0 -1
112.5999984741211 79.69999694824219 -13.916000366210938 0 -1
113.5999984741211 75.19999694824219 -14.418000221252441 0 -1
112 89.4000015258789 -17.261999130249023 0 -1
119 81.9000015258789 -14.253000259399414 0 -1
112.80000305175781 88.9000015258789 -17.17099952697754 0 -1
118.9000015258789 88.80000305175781 -14.864999771118164 0 -1
110 77.4000015258789 -11.88700008392334 0 -1
117.80000305175781 76.19999694824219 -12.934000015258789 0 -1
123 86.5999984741211 -14.628000259399414 0 -1
112.4000015258789 80.9000015258789 -14.914999961853027 0 -1
110.69999694824219 76.4000015258789 -14.6850004196167 0 -1
114.4000015258789 92.5 -14.9350004196167 0 -1
113.9000015258789 94 -13.758000373840332 0 -1
111 92.80000305175781 -14.036999702453613 0 -1
121.30000305175781 87.80000305175781 -14.736000061035156 0 -1
121.19999694824219 82.9000015258789 -14.248000144958496 0 -1
120.0999984741211 92.69999694824219 -15.20199966430664 1 -1
116 88.19999694824219 -15.958999633789062 0 -1
110.5 84.9000015258789 -15.76099967956543 0 -1
114.9000015258789 94.80000305175781 -12.87399959564209 0 -1
120.5 81.80000305175781 -14.237000465393066 0 -1
115.4000015258789 90.9000015258789 -14.918000221252441 0 -1
110.0999984741211 78.19999694824219 -12.949000358581543 0 -1
117.0999984741211 84.4000015258789 -13.854000091552734 0 -1
116.4000015258789 93.19999694824219 -14.968999862670898 0 -1
