VERSION .7
FIELDS x y z label object
SIZE 4 4 4 4 4
TYPE F F F I I
COUNT 1 1 1 1 1
WIDTH 867
HEIGHT 1
POINTS 867
VIEWPOINT 0 0 0 1 0 0 0
DATA ascii
111.9000015258789 82.5999984741211 -13.85200023651123 0 -1
111.69999694824219 86.4000015258789 -16.42799949645996 0 -1
115.9000015258789 93.80000305175781 -13.968999862670898 0 -1
119.0999984741211 84.30000305175781 0.9369999766349792 1 -1
110.5 80.69999694824219 -12.729000091552734 0 -1
120.4000015258789 88.30000305175781 -13.958999633789062 0 -1
111.0999984741211 92 -13.977999687194824 0 -1
116.0999984741211 89.4000015258789 -15.612000465393066 0 -1
112.30000305175781 77.30000305175781 -14.342000007629395 0 -1
120.30000305175781 82.9000015258789 5.728000164031982 1 -1
122.30000305175781 81.0999984741211 -13.75100040435791 0 -1
110.19999694824219 89 -17.55500030517578 0 -1
121.5 84.0999984741211 2.2750000953674316 1 -1
111.4000015258789 86.0999984741211 -17.597000122070312 0 -1
120.19999694824219 85.9000015258789 -14.333000183105469 0 -1
112.69999694824219 81.5999984741211 -14.479999542236328 0 -1
118.80000305175781 92.9000015258789 -14.968000411987305 0 -1
111.5 93.80000305175781 -10.965999603271484 0 -1
121.19999694824219 77.9000015258789 -13.652000427246094 0 -1
118.69999694824219 84.4000015258789 -14.161999702453613 0 -1
120.30000305175781 81.9000015258789 10.906000137329102 2 -1
118.0999984741211 90.5999984741211 -15.416000366210938 0 -1
118.30000305175781 84 -14.32800006866455 0 -1
112.4000015258789 77.19999694824219 -14.366000175476074 0 -1
112.5 78 -14.232000350952148 0 -1
121.9000015258789 85.30000305175781 -14.66100025177002 0 -1
118.4000015258789 91.4000015258789 -15.970999717712402 0 -1
115 83.4000015258789 -13.890000343322754 0 -1
113.5999984741211 94.5999984741211 -10.842000007629395 0 -1
119 77.69999694824219 -13.065999984741211 0 -1
113.19999694824219 94.30000305175781 -11.732000350952148 0 -1
114.0999984741211 91 -15.54800033569336 0 -1
112.80000305175781 93.0999984741211 -12.218999862670898 0 -1
115.69999694824219 89.4000015258789 -15.715999603271484 0 -1
115.19999694824219 79.30000305175781 -14.390999794006348 0 -1
118.19999694824219 87.30000305175781 -14.708000183105469 0 -1
117.69999694824219 86.4000015258789 -14.041999816894531 0 -1
119.5 93.69999694824219 -15.982000350952148 0 -1
113.0999984741211 84.9000015258789 -14.428999900817871 0 -1
111.30000305175781 82.80000305175781 -13.779000282287598 0 -1
113.5999984741211 79.19999694824219 -14.682999610900879 0 -1
122.80000305175781 80.69999694824219 -13.991999626159668 0 -1
114.0999984741211 77.5999984741211 -14.744000434875488 0 -1
121.69999694824219 94.4000015258789 -12.579000473022461 0 -1
113.19999694824219 78.9000015258789 -14.644000053405762 0 -1
120.5999984741211 82.80000305175781 5.939000129699707 1 -1
118.5999984741211 81.5 -14.123000144958496 0 -1
117.5999984741211 91.30000305175781 -15.685999870300293 0 -1
110.69999694824219 91.69999694824219 -17.37299919128418 0 -1
114.5999984741211 85.5999984741211 -15.805999755859375 0 -1
121.4000015258789 88.19999694824219 -15.913999557495117 0 -1
111.9000015258789 82.5 -13.928999900817871 0 -1
118.80000305175781 75.5 -12.708999633789062 0 -1
117 90.4000015258789 -15.454999923706055 0 -1
111.5999984741211 80.9000015258789 -13.850000381469727 0 -1
121.80000305175781 91.0999984741211 -16.517000198364258 0 -1
110.30000305175781 80.5999984741211 -12.39799976348877 0 -1
121.30000305175781 91.80000305175781 -15.906999588012695 0 -1
116 84.19999694824219 -13.434000015258789 0 -1
114.30000305175781 92.69999694824219 -14.998000144958496 0 -1
118.80000305175781 92.80000305175781 -14.861000061035156 0 -1
114 80.5999984741211 -14.609999656677246 0 -1
116.80000305175781 89.19999694824219 -14.968000411987305 0 -1
120.5 77.80000305175781 -12.692999839782715 0 -1
112.4000015258789 94.30000305175781 -10.611000061035156 0 -1
114.19999694824219 89.69999694824219 -16.5049991607666 0 -1
121.5 86.5999984741211 -14.961999893188477 0 -1
121.69999694824219 94 -12.784000396728516 0 -1
118.5999984741211 90.69999694824219 -15.569000244140625 0 -1
121.5 84.19999694824219 2.4590001106262207 1 -1
116.19999694824219 87 -14.579999923706055 0 -1
117.30000305175781 82.5999984741211 -12.737000465393066 0 -1
111.5 93.69999694824219 -10.722999572753906 0 -1
120.5 86.80000305175781 -14.4399995803833 0 -1
113.5 90.30000305175781 -16.558000564575195 0 -1
119.19999694824219 83.5 0.7129999995231628 1 -1
119.5999984741211 84 1.6979999542236328 1 -1
111.4000015258789 86.4000015258789 -16.201000213623047 0 -1
112.19999694824219 87.0999984741211 -16.731000900268555 0 -1
116.9000015258789 78.4000015258789 -12.109999656677246 0 -1
111.5999984741211 81 -13.956999778747559 0 -1
115.4000015258789 94.4000015258789 -11.618000030517578 0 -1
122.0999984741211 82 -13.930999755859375 0 -1
117.5999984741211 76 -12.685999870300293 0 -1
119.80000305175781 82.80000305175781 5.546999931335449 1 -1
113.9000015258789 87 -15.954000473022461 0 -1
113 90.30000305175781 -16.6200008392334 0 -1
115.5999984741211 77.0999984741211 -12.538999557495117 0 -1
120.30000305175781 83.0999984741211 1.6779999732971191 1 -1
118.0999984741211 81.4000015258789 -14.737000465393066 0 -1
118.80000305175781 75.4000015258789 -12.819999694824219 0 -1
110.5999984741211 86.5999984741211 -17.95599937438965 0 -1
119.80000305175781 82.69999694824219 5.276000022888184 1 -1
118.0999984741211 80.9000015258789 -12.795000076293945 0 -1
113.4000015258789 92.5 -14.430000305175781 0 -1
122.4000015258789 84.9000015258789 -14.875 0 -1
115.5 87.5999984741211 -15.848999977111816 0 -1
116.80000305175781 89.5 -14.972999572753906 0 -1
113.80000305175781 85.9000015258789 -15.545000076293945 0 -1
120.5999984741211 82.5999984741211 5.910999774932861 1 -1
121.69999694824219 78.5999984741211 -13.42199993133545 0 -1
112.0999984741211 82.19999694824219 -14.383999824523926 0 -1
114.69999694824219 78.69999694824219 -12.751999855041504 0 -1
111.80000305175781 93.5 -11.491999626159668 0 -1
114.19999694824219 89.5999984741211 -16.347000122070312 0 -1
121.5999984741211 91 -16.34600067138672 0 -1
114.5 89.5 -16.29400062561035 0 -1
120.19999694824219 78.69999694824219 -12.977999687194824 0 -1
118.5999984741211 81.80000305175781 -14.211999893188477 0 -1
110.9000015258789 78.80000305175781 -12.98900032043457 0 -1
120.4000015258789 88.0999984741211 -14.579000473022461 0 -1
119.9000015258789 82.5 4.734000205993652 1 -1
119.4000015258789 89.9000015258789 -15.383000373840332 0 -1
111.5999984741211 94.30000305175781 -10.548999786376953 0 -1
117.80000305175781 80.5 -12.77299976348877 0 -1
118 78.30000305175781 -12.835000038146973 0 -1
111.80000305175781 76.0999984741211 -13.77400016784668 0 -1
117 77.0999984741211 -13.298999786376953 0 -1
122.5999984741211 82.5999984741211 -14.298999786376953 0 -1
116.30000305175781 91.30000305175781 -15.88599967956543 0 -1
121.4000015258789 83.80000305175781 -13.763999938964844 0 -1
120.69999694824219 79 -13.237000465393066 0 -1
119.5999984741211 83.9000015258789 1.0740000009536743 1 -1
111 75.5 -12.204000473022461 0 -1
113.69999694824219 88.19999694824219 -16.46299934387207 0 -1
113.19999694824219 79.0999984741211 -14.628999710083008 0 -1
120.19999694824219 84.19999694824219 1.315000057220459 1 -1
121.19999694824219 77.69999694824219 -11.920000076293945 0 -1
120.30000305175781 81.69999694824219 6.619999885559082 1 -1
120.0999984741211 79.9000015258789 2.88100004196167 1 -1
112.9000015258789 86.69999694824219 -16.841999053955078 0 -1
111.5 74.30000305175781 -11.868000030517578 0 -1
122 87 -14.9350004196167 0 -1
119.30000305175781 77.0999984741211 -12.854999542236328 0 -1
115.80000305175781 81.9000015258789 -12.890000343322754 0 -1
113 90.19999694824219 -16.96299934387207 0 -1
117.9000015258789 76.0999984741211 -12.467000007629395 0 -1
120 91.30000305175781 -16.67799949645996 0 -1
111.69999694824219 86.5 -16.77400016784668 0 -1
112.80000305175781 77.69999694824219 -14.152000427246094 0 -1
117.19999694824219 89.19999694824219 -14.782999992370605 0 -1
112.30000305175781 92.5999984741211 -12.78600025177002 0 -1
118.4000015258789 80.0999984741211 -12.90999984741211 0 -1
119.80000305175781 85.19999694824219 -14.295000076293945 0 -1
116.0999984741211 89.5 -15.567000389099121 0 -1
118.80000305175781 93 -14.902000427246094 0 -1
113.4000015258789 77.19999694824219 -15.027000427246094 0 -1
122.0999984741211 83.9000015258789 -13.82699966430664 0 -1
115.5999984741211 90.4000015258789 -15.305999755859375 0 -1
118.9000015258789 92.80000305175781 -15.888999938964844 0 -1
112.4000015258789 76.9000015258789 -14.253000259399414 0 -1
110.69999694824219 80.4000015258789 -12.906000137329102 0 -1
121.69999694824219 78.69999694824219 -13.527000427246094 0 -1
121 83.80000305175781 -13.520000457763672 0 -1
112.0999984741211 82.30000305175781 -14.309000015258789 0 -1
119.0999984741211 84.19999694824219 0.527999997138977 1 -1
115.9000015258789 93.69999694824219 -13.972000122070312 0 -1
115.4000015258789 81.0999984741211 -12.732000350952148 0 -1
114.0999984741211 77.80000305175781 -14.744000434875488 0 -1
120.69999694824219 84.0999984741211 2.5369999408721924 1 -1
120.9000015258789 86.5999984741211 -13.958000183105469 0 -1
120.19999694824219 85.80000305175781 -14.33899974822998 0 -1
122.30000305175781 78.69999694824219 -13.012999534606934 0 -1
112.30000305175781 77.19999694824219 -14.317999839782715 0 -1
114.0999984741211 90.9000015258789 -15.767999649047852 0 -1
119.69999694824219 86.69999694824219 -14.098999977111816 0 -1
113.4000015258789 92.5999984741211 -14.03499984741211 0 -1
111.5 93.9000015258789 -10.722999572753906 0 -1
119.4000015258789 89.80000305175781 -15.291000366210938 0 -1
121.19999694824219 77.80000305175781 -13.678999900817871 0 -1
111.0999984741211 91.80000305175781 -14.230999946594238 0 -1
120.30000305175781 82.80000305175781 -14.166999816894531 0 -1
114.69999694824219 78.5999984741211 -12.979999542236328 0 -1
122.80000305175781 81.0999984741211 3.38100004196167 1 -1
117 90.5999984741211 -15.61299991607666 0 -1
110.30000305175781 80.4000015258789 -12.279000282287598 0 -1
118.5999984741211 81.9000015258789 -14.300000190734863 0 -1
120.69999694824219 79.0999984741211 -13.151000022888184 0 -1
110.80000305175781 88.4000015258789 -17.114999771118164 0 -1
111 75.4000015258789 -12.135000228881836 0 -1
114.9000015258789 81.5 -13.460000038146973 0 -1
112.80000305175781 93 -12.62399959564209 0 -1
114 80.4000015258789 -14.609000205993652 0 -1
110.4000015258789 76.5999984741211 -11.909000396728516 0 -1
118.19999694824219 87.19999694824219 -14.184000015258789 0 -1
111.30000305175781 82.5999984741211 -13.930000305175781 0 -1
117.69999694824219 86.5 -14.062999725341797 0 -1
119.5 93.80000305175781 -15.904000282287598 0 -1
121.5999984741211 90.9000015258789 -16.430999755859375 0 -1
121.69999694824219 80.19999694824219 4.297999858856201 1 -1
113.5999984741211 94.69999694824219 -10.972999572753906 0 -1
117.0999984741211 80.19999694824219 -12.802000045776367 0 -1
119 77.80000305175781 -12.91100025177002 0 -1
122.19999694824219 87.19999694824219 -15.291000366210938 0 -1
120.5 87 -14.4399995803833 0 -1
118.4000015258789 80 -12.842000007629395 0 -1
112.9000015258789 86.5999984741211 -16.589000701904297 0 -1
115.4000015258789 81.69999694824219 -13.272000312805176 0 -1
119.30000305175781 77 -12.869999885559082 0 -1
123 82.5 -14.041000366210938 0 -1
118.9000015258789 92.9000015258789 -15.932999610900879 0 -1
113.5999984741211 79.30000305175781 -14.694000244140625 0 -1
118.0999984741211 90.19999694824219 -15.291000366210938 0 -1
120.5 77.69999694824219 -12.805000305175781 0 -1
110.69999694824219 80.5 -12.859999656677246 0 -1
112.4000015258789 76.80000305175781 -14.380999565124512 0 -1
121.0999984741211 81.80000305175781 7.071000099182129 1 -1
120.69999694824219 84.19999694824219 2.4110000133514404 1 -1
121.30000305175781 91.9000015258789 -15.857000350952148 0 -1
119.80000305175781 85.30000305175781 -14.295999526977539 0 -1
119.19999694824219 82.4000015258789 3.328000068664551 1 -1
117.5999984741211 75.80000305175781 -12.685999870300293 0 -1
117.30000305175781 82.5 -12.706000328063965 0 -1
115.80000305175781 95 4.492000102996826 3 -1
114.5999984741211 85.69999694824219 -15.881999969482422 0 -1
113.4000015258789 77.30000305175781 -14.973999977111816 0 -1
113.9000015258789 86.80000305175781 -15.90999984741211 0 -1
121.30000305175781 80.5999984741211 3.9240000247955322 1 -1
117.80000305175781 80.30000305175781 -14.383000373840332 0 -1
118.5 85.19999694824219 -14.229000091552734 0 -1
111.0999984741211 91.9000015258789 -14.314000129699707 0 -1
121.5999984741211 81.69999694824219 6.770999908447266 1 -1
112 85.30000305175781 -15.888999938964844 0 -1
119.5 94.0999984741211 -15.857000350952148 0 -1
113.19999694824219 94.4000015258789 -10.993000030517578 0 -1
115.30000305175781 93.69999694824219 -13.986000061035156 0 -1
111.0999984741211 80.5999984741211 -12.97700023651123 0 -1
117.69999694824219 86.30000305175781 -14.107999801635742 0 -1
122.9000015258789 88 -15.293000221252441 0 -1
110.5 80.80000305175781 -12.640999794006348 0 -1
111.19999694824219 75.19999694824219 -11.968999862670898 0 -1
112.69999694824219 81.5 -14.501999855041504 0 -1
114.19999694824219 89.80000305175781 -16.503999710083008 0 -1
115.80000305175781 81.69999694824219 -12.588000297546387 0 -1
115.4000015258789 95 -10.89799976348877 0 -1
117.0999984741211 80.30000305175781 -12.819000244140625 0 -1
117.4000015258789 79.19999694824219 -12.963000297546387 0 -1
116 84.0999984741211 -13.437000274658203 0 -1
117 77.30000305175781 -13.262999534606934 0 -1
114.30000305175781 75.5 -14.72599983215332 0 -1
111.4000015258789 86.5 -16.17799949645996 0 -1
114.4000015258789 89.5 -16.454999923706055 0 -1
115.9000015258789 93.9000015258789 -12.682999610900879 0 -1
118.69999694824219 84 -13.994000434875488 0 -1
118.30000305175781 84.4000015258789 -13.92199993133545 0 -1
112.30000305175781 77.4000015258789 -14.439000129699707 0 -1
112.4000015258789 94.4000015258789 -10.732999801635742 0 -1
110.9000015258789 78.69999694824219 -13.555000305175781 0 -1
122.69999694824219 88.0999984741211 -15.237000465393066 0 -1
113.9000015258789 86.9000015258789 -15.928999900817871 0 -1
113.80000305175781 85.80000305175781 -15.572999954223633 0 -1
120.30000305175781 83.19999694824219 5.748000144958496 1 -1
118.30000305175781 84.30000305175781 -13.866999626159668 0 -1
119.19999694824219 83.9000015258789 0.7070000171661377 1 -1
114.30000305175781 92.80000305175781 -13.885000228881836 0 -1
119.5999984741211 84.4000015258789 0.8420000076293945 1 -1
118.5999984741211 81.69999694824219 -14.123000144958496 0 -1
120.19999694824219 78.5999984741211 -12.817000389099121 0 -1
119.9000015258789 82.5999984741211 5.276000022888184 1 -1
122.4000015258789 83 -13.798999786376953 0 -1
114.9000015258789 81.30000305175781 -13.763999938964844 0 -1
112.5 78.5999984741211 -14.557999610900879 0 -1
117.5999984741211 75.9000015258789 -12.767000198364258 0 -1
115.5 87.5 -15.892999649047852 0 -1
113.69999694824219 88.0999984741211 -16.472999572753906 0 -1
116.19999694824219 86.0999984741211 -15.20300006866455 0 -1
121.5999984741211 91.0999984741211 -16.430999755859375 0 -1
118.0999984741211 81 -12.800999641418457 0 -1
120 91.4000015258789 -16.67300033569336 0 -1
113.5 90.4000015258789 -16.47100067138672 0 -1
119.69999694824219 86.9000015258789 -14.52299976348877 0 -1
114.0999984741211 91.0999984741211 -15.475000381469727 0 -1
113.19999694824219 79 -14.63700008392334 0 -1
120.19999694824219 84.30000305175781 1.6519999504089355 1 -1
121.19999694824219 77.5999984741211 -13.678999900817871 0 -1
120.30000305175781 82.5999984741211 5.73799991607666 1 -1
115.30000305175781 93.80000305175781 -13.913999557495117 0 -1
115 83.5 -13.902000427246094 0 -1
112.4000015258789 77 -14.317000389099121 0 -1
112 85.69999694824219 -15.954000473022461 0 -1
112.0999984741211 82.5999984741211 -14.307000160217285 0 -1
111.80000305175781 93.9000015258789 -10.96500015258789 0 -1
112.80000305175781 77.5999984741211 -14.303000450134277 0 -1
114.0999984741211 77.69999694824219 -14.793000221252441 0 -1
121.19999694824219 95 -12.060999870300293 0 -1
110.69999694824219 91.80000305175781 -17.360000610351562 0 -1
113.0999984741211 84.80000305175781 -14.394000053405762 0 -1
119 90.69999694824219 -16.07699966430664 0 -1
121.30000305175781 80.4000015258789 3.9240000247955322 1 -1
118.5999984741211 91.0999984741211 -15.954999923706055 0 -1
118.4000015258789 91.30000305175781 -15.906000137329102 0 -1
121.5999984741211 81.9000015258789 6.770999908447266 1 -1
111.80000305175781 76.5 -13.932999610900879 0 -1
117.19999694824219 89.30000305175781 -14.958000183105469 0 -1
114.30000305175781 92.9000015258789 -13.901000022888184 0 -1
118 78.4000015258789 -13.277000427246094 0 -1
120.19999694824219 85.69999694824219 -14.41100025177002 0 -1
120.9000015258789 86.69999694824219 -13.927000045776367 0 -1
119.5999984741211 83.5 2.117000102996826 1 -1
112.5 78.69999694824219 -14.59000015258789 0 -1
121 83.9000015258789 -13.508999824523926 0 -1
113.5999984741211 94.30000305175781 -11.684000015258789 0 -1
111.9000015258789 82.4000015258789 -13.85200023651123 0 -1
116.0999984741211 89.69999694824219 -15.567000389099121 0 -1
117 90.5 -15.654000282287598 0 -1
111.69999694824219 86.5999984741211 -16.246000289916992 0 -1
117.5 80.19999694824219 -12.770999908447266 0 -1
119 77.4000015258789 -12.694000244140625 0 -1
122.80000305175781 81 3.571000099182129 1 -1
119.0999984741211 84.0999984741211 0.5889999866485596 1 -1
121.69999694824219 94.0999984741211 -15.180999755859375 0 -1
113.19999694824219 79.19999694824219 -14.680999755859375 0 -1
115.0999984741211 93.5 -13.902999877929688 0 -1
110.30000305175781 80.5 -12.362000465393066 0 -1
120.0999984741211 80 2.822999954223633 1 -1
122.30000305175781 78.5999984741211 -13.055000305175781 0 -1
121.9000015258789 84.5999984741211 2.134999990463257 1 -1
115.5999984741211 77.5 -12.38700008392334 0 -1
111.0999984741211 91.69999694824219 -14.616000175476074 0 -1
113.5999984741211 78.9000015258789 -14.642000198364258 0 -1
116 84.80000305175781 -14.059000015258789 0 -1
111.4000015258789 86.30000305175781 -16.17799949645996 0 -1
110.80000305175781 88.5 -17.131000518798828 0 -1
116.9000015258789 78.5 -12.062999725341797 0 -1
119.69999694824219 86.80000305175781 -14.472000122070312 0 -1
111.0999984741211 80.4000015258789 -12.9399995803833 0 -1
118.69999694824219 84.19999694824219 -13.994000434875488 0 -1
114 80.5 -14.609000205993652 0 -1
114.0999984741211 76.9000015258789 -15.017999649047852 0 -1
114.5 89.0999984741211 -15.92300033569336 0 -1
118.4000015258789 91.19999694824219 -15.682000160217285 0 -1
112.5999984741211 75.69999694824219 -14.0649995803833 0 -1
121.5999984741211 81.80000305175781 -13.854999542236328 0 -1
118.0999984741211 90.30000305175781 -14.987000465393066 0 -1
120.4000015258789 88.5 -13.958999633789062 0 -1
120.5 77.4000015258789 -11.991000175476074 0 -1
122.5999984741211 85.30000305175781 -14.937999725341797 0 -1
111.5999984741211 81.0999984741211 -13.873000144958496 0 -1
113.9000015258789 86.19999694824219 -15.675999641418457 0 -1
112.80000305175781 92.9000015258789 -12.218999862670898 0 -1
115 83.69999694824219 -13.979999542236328 0 -1
118.5 85 -14.305000305175781 0 -1
112.69999694824219 81.9000015258789 -14.331000328063965 0 -1
122.5 89.9000015258789 -15.362000465393066 0 -1
122.30000305175781 80.5999984741211 3.680000066757202 1 -1
116.80000305175781 89.4000015258789 -14.970000267028809 0 -1
119.5 94.19999694824219 -14.204999923706055 0 -1
110.5999984741211 86.69999694824219 -17.9689998626709 0 -1
119.80000305175781 82.5999984741211 5.546999931335449 1 -1
115.69999694824219 89.80000305175781 -15.630999565124512 0 -1
110.19999694824219 88.9000015258789 -17.496999740600586 0 -1
118 78.5 -13.104000091552734 0 -1
118.4000015258789 79.9000015258789 -12.98900032043457 0 -1
115.19999694824219 79.4000015258789 -11.92199993133545 0 -1
114.5999984741211 85.80000305175781 -15.89799976348877 0 -1
113 90.5999984741211 -16.325000762939453 0 -1
115.5999984741211 77.4000015258789 -12.82800006866455 0 -1
120.5 86.5999984741211 -13.9399995803833 0 -1
116.0999984741211 89.5999984741211 -15.604000091552734 0 -1
112.9000015258789 87 -16.85099983215332 0 -1
117.4000015258789 80.5999984741211 -12.880999565124512 0 -1
117 93.80000305175781 -14.310999870300293 0 -1
121.69999694824219 78.80000305175781 -13.493000030517578 0 -1
118.19999694824219 87.0999984741211 -14.157999992370605 0 -1
111.0999984741211 80.5 -12.982999801635742 0 -1
117.5999984741211 75.69999694824219 -12.74899959564209 0 -1
113.4000015258789 76.80000305175781 -15.107000350952148 0 -1
115.5999984741211 90.80000305175781 -15.892999649047852 0 -1
117 77.19999694824219 -13.333999633789062 0 -1
111.5 74.4000015258789 -11.944000244140625 0 -1
122.19999694824219 87.0999984741211 -15.1899995803833 0 -1
118.5999984741211 90.9000015258789 -15.954999923706055 0 -1
121.69999694824219 94.19999694824219 -12.784000396728516 0 -1
121.4000015258789 83.9000015258789 -13.781000137329102 0 -1
113.4000015258789 92.19999694824219 -15.725000381469727 0 -1
112.19999694824219 88 -16.648000717163086 0 -1
112.30000305175781 92.69999694824219 -12.684000015258789 0 -1
118.5 85.0999984741211 -14.133999824523926 0 -1
121.0999984741211 80.9000015258789 4.920000076293945 1 -1
111.19999694824219 75.0999984741211 -11.996999740600586 0 -1
117.5999984741211 91.19999694824219 -15.67300033569336 0 -1
115.5999984741211 90.69999694824219 -15.840999603271484 0 -1
117.19999694824219 86.80000305175781 -14.10099983215332 0 -1
117.30000305175781 85.5 -13.763999938964844 0 -1
114 80.30000305175781 -14.609000205993652 0 -1
110.30000305175781 80.80000305175781 -12.852999687194824 0 -1
119.19999694824219 83.80000305175781 0.8090000152587891 1 -1
120.19999694824219 78.5 -12.76200008392334 0 -1
117.69999694824219 87.69999694824219 -14.604000091552734 0 -1
110.9000015258789 78.5999984741211 -13.626999855041504 0 -1
122 84.5999984741211 2.0239999294281006 1 -1
117.5 79.5 -12.96500015258789 0 -1
114.69999694824219 78 -14.637999534606934 0 -1
119.4000015258789 89.69999694824219 -15.383000373840332 0 -1
111.5999984741211 81.69999694824219 -13.994999885559082 0 -1
113 90.5 -16.410999298095703 0 -1
111.30000305175781 82.5 -13.880000114440918 0 -1
119.80000305175781 82.5 5.276000022888184 1 -1
113.80000305175781 85.19999694824219 -15.48799991607666 0 -1
121.5 86.69999694824219 -14.982000350952148 0 -1
118.0999984741211 81.0999984741211 -12.795000076293945 0 -1
111 75.30000305175781 -12.312000274658203 0 -1
113.5 90.5 -16.457000732421875 0 -1
115.5 87.4000015258789 -15.848999977111816 0 -1
120.19999694824219 84.4000015258789 1.565999984741211 1 -1
121.5999984741211 81.5 6.89900016784668 1 -1
120.9000015258789 86.80000305175781 -13.897000312805176 0 -1
119.9000015258789 83.19999694824219 -14.465999603271484 0 -1
119.30000305175781 76.9000015258789 -12.913000106811523 0 -1
120 91.5 -16.67799949645996 0 -1
111.80000305175781 93.80000305175781 -10.779999732971191 0 -1
116.30000305175781 92 -15.519000053405762 0 -1
114.9000015258789 81.4000015258789 -13.524999618530273 0 -1
113.4000015258789 76.9000015258789 -15.128999710083008 0 -1
116.9000015258789 79.19999694824219 -12.423999786376953 0 -1
111.0999984741211 80.30000305175781 -12.996000289916992 0 -1
121.30000305175781 80.5 3.9719998836517334 1 -1
118.5999984741211 91 -15.822999954223633 0 -1
110.69999694824219 80.5999984741211 -12.935999870300293 0 -1
111.80000305175781 76.4000015258789 -13.859000205993652 0 -1
117.5 94.9000015258789 -12.946999549865723 0 -1
119.69999694824219 87 -14.472000122070312 0 -1
119.5999984741211 83.69999694824219 2.117000102996826 1 -1
115.69999694824219 89.5999984741211 -15.715999603271484 0 -1
120.69999694824219 84.30000305175781 2.5369999408721924 1 -1
110.4000015258789 76.5 -11.960000038146973 0 -1
120.19999694824219 85.5999984741211 -14.388999938964844 0 -1
121.0999984741211 81 5.192999839782715 1 -1
115.80000305175781 94.9000015258789 -11.694000244140625 0 -1
113.0999984741211 84.69999694824219 -14.345000267028809 0 -1
111.5 74.0999984741211 -11.697999954223633 0 -1
119.4000015258789 89.5999984741211 -15.291000366210938 0 -1
115.19999694824219 79.5999984741211 -12.270000457763672 0 -1
122 86.80000305175781 -14.9350004196167 0 -1
115.4000015258789 81.80000305175781 -13.545999526977539 0 -1
113.5999984741211 79 -14.647000312805176 0 -1
117.80000305175781 80.19999694824219 -12.824999809265137 0 -1
122.9000015258789 87.9000015258789 -15.26099967956543 0 -1
110.5 79.9000015258789 -12.652000427246094 0 -1
112.80000305175781 77.5 -14.288999557495117 0 -1
122.30000305175781 78.80000305175781 -13.055000305175781 0 -1
111.69999694824219 86.69999694824219 -16.26799964904785 0 -1
114.5 89.19999694824219 -15.810999870300293 0 -1
121.19999694824219 94.9000015258789 -12.281999588012695 0 -1
111 75.19999694824219 -11.92199993133545 0 -1
114.69999694824219 77.9000015258789 -14.454000473022461 0 -1
110.80000305175781 88.5999984741211 -17.197999954223633 0 -1
119.80000305175781 85.4000015258789 -14.274999618530273 0 -1
118.9000015258789 93 -14.930000305175781 0 -1
120.5999984741211 82.5 5.940999984741211 1 -1
122.5 90 -15.437999725341797 0 -1
119.5 94 -15.904000282287598 0 -1
119 77.5 -13.142999649047852 0 -1
113.19999694824219 94.5 -10.916000366210938 0 -1
119.0999984741211 84 0.7580000162124634 1 -1
115.80000305175781 81.5999984741211 -12.496000289916992 0 -1
120.0999984741211 80.0999984741211 2.8940000534057617 1 -1
114.4000015258789 89.5999984741211 -16.483999252319336 0 -1
121.9000015258789 84.5 2.0239999294281006 1 -1
112.30000305175781 92.9000015258789 -12.475000381469727 0 -1
114.0999984741211 90.19999694824219 -15.890999794006348 0 -1
116.9000015258789 94.5 -12.888999938964844 0 -1
116.0999984741211 89.80000305175781 -15.300000190734863 0 -1
119.30000305175781 76.80000305175781 -12.847999572753906 0 -1
113.69999694824219 89 -15.956999778747559 0 -1
122.80000305175781 80.9000015258789 -13.949999809265137 0 -1
117.9000015258789 76.19999694824219 -12.730999946594238 0 -1
121 83.5 -13.633000373840332 0 -1
115.69999694824219 89.69999694824219 -15.64799976348877 0 -1
111.5 93.5 -11.642999649047852 0 -1
112.80000305175781 92.80000305175781 -12.62399959564209 0 -1
115 83.5999984741211 -13.890000343322754 0 -1
123 83.19999694824219 -13.40999984741211 0 -1
118.69999694824219 84.0999984741211 -13.972999572753906 0 -1
120.30000305175781 81.5999984741211 2.135999917984009 1 -1
112.30000305175781 77.5 -14.470000267028809 0 -1
114.0999984741211 76.80000305175781 -15.234000205993652 0 -1
121.5999984741211 90.69999694824219 -16.174999237060547 0 -1
121.19999694824219 77.5 -11.920000076293945 0 -1
117.5 79.5999984741211 -12.89799976348877 0 -1
110.19999694824219 88.80000305175781 -17.32200050354004 0 -1
112.69999694824219 81.80000305175781 -14.32699966430664 0 -1
118.80000305175781 93.0999984741211 -14.968000411987305 0 -1
111.5 74 -11.609999656677246 0 -1
122.0999984741211 83.80000305175781 -13.777999877929688 0 -1
115.4000015258789 81.9000015258789 -13.571000099182129 0 -1
118.5999984741211 91.30000305175781 -15.690999984741211 0 -1
118.4000015258789 91.0999984741211 -15.911999702453613 0 -1
117.9000015258789 77.4000015258789 -12.975000381469727 0 -1
115.0999984741211 93.5999984741211 -13.967000007629395 0 -1
118.9000015258789 93.0999984741211 -14.998000144958496 0 -1
111.19999694824219 75.4000015258789 -12.024999618530273 0 -1
117 93.69999694824219 -14.229000091552734 0 -1
110.5 80.0999984741211 -12.652000427246094 0 -1
121.30000305175781 92.0999984741211 -15.857000350952148 0 -1
111.9000015258789 82.30000305175781 -13.928999900817871 0 -1
122.4000015258789 83.0999984741211 -13.847999572753906 0 -1
114.9000015258789 81.19999694824219 -13.607999801635742 0 -1
110.69999694824219 91.4000015258789 -17.4060001373291 0 -1
119.80000305175781 85.5 -14.272000312805176 0 -1
115.19999694824219 79.5 -12.244000434875488 0 -1
114.5999984741211 85.9000015258789 -15.85099983215332 0 -1
121.30000305175781 80.80000305175781 5.192999839782715 1 -1
113.30000305175781 91.69999694824219 -15.777000427246094 0 -1
115.30000305175781 93.9000015258789 -13.48900032043457 0 -1
112 85.5999984741211 -15.92199993133545 0 -1
114.4000015258789 89.69999694824219 -16.534000396728516 0 -1
118.30000305175781 87.80000305175781 -14.803000450134277 0 -1
122.69999694824219 88.30000305175781 -15.237000465393066 0 -1
115.9000015258789 94 -12.506999969482422 0 -1
122.80000305175781 81.4000015258789 3.378999948501587 1 -1
117.80000305175781 80 -13.182000160217285 0 -1
120.69999694824219 84.4000015258789 2.4110000133514404 1 -1
113.5999984741211 94.4000015258789 -11.753999710083008 0 -1
115.30000305175781 94 -12.991000175476074 0 -1
123 83.30000305175781 -14.218000411987305 0 -1
120.19999694824219 78.4000015258789 -12.817000389099121 0 -1
117.19999694824219 86.9000015258789 -14.08899974822998 0 -1
117.30000305175781 85.4000015258789 -13.717000007629395 0 -1
114.19999694824219 89.4000015258789 -16.038999557495117 0 -1
121.5 86.9000015258789 -14.982000350952148 0 -1
117.9000015258789 92.69999694824219 -15.213000297546387 0 -1
111.4000015258789 86.69999694824219 -16.222999572753906 0 -1
117.0999984741211 81.5 -12.612000465393066 0 -1
113.19999694824219 94.69999694824219 -10.892000198364258 0 -1
113.80000305175781 85.0999984741211 -15.263999938964844 0 -1
110.4000015258789 76.30000305175781 -11.795000076293945 0 -1
113.5 90.5999984741211 -15.984999656677246 0 -1
117.5999984741211 91.0999984741211 -15.715999603271484 0 -1
112.4000015258789 95 -9.894000053405762 0 -1
120 91.5999984741211 -16.198999404907227 0 -1
117.5 79.4000015258789 -12.998000144958496 0 -1
110.69999694824219 91.5 -17.413000106811523 0 -1
113.0999984741211 84.5 -14.309000015258789 0 -1
118.80000305175781 91.19999694824219 -15.67300033569336 0 -1
120.9000015258789 86.9000015258789 -14.083999633789062 0 -1
110.9000015258789 78 -12.961000442504883 0 -1
111.19999694824219 75.5 -12.204000473022461 0 -1
119.9000015258789 83.30000305175781 -14.550000190734863 0 -1
113.19999694824219 79.30000305175781 -14.680999755859375 0 -1
120.0999984741211 81.69999694824219 1.819000005722046 1 -1
111.9000015258789 82.19999694824219 -14.425000190734863 0 -1
112.5 78.80000305175781 -14.557999610900879 0 -1
117.69999694824219 87.80000305175781 -14.918000221252441 0 -1
117 76.30000305175781 -13.66100025177002 0 -1
111.80000305175781 93.69999694824219 -10.96500015258789 0 -1
116.30000305175781 92.0999984741211 -15.472999572753906 0 -1
119.19999694824219 84.19999694824219 1.5490000247955322 1 -1
114.30000305175781 92.5 -15.27400016784668 0 -1
115.5 87.30000305175781 -15.996999740600586 0 -1
116 84.9000015258789 -14.107999801635742 0 -1
118.19999694824219 84.9000015258789 -13.97599983215332 0 -1
120.5 77.5 -11.984000205993652 0 -1
120.4000015258789 88.4000015258789 -13.854000091552734 0 -1
119.5999984741211 83.5999984741211 1.305999994277954 1 -1
118 78.5999984741211 -13.154999732971191 0 -1
118.0999984741211 80.69999694824219 -13.14900016784668 0 -1
118.30000305175781 87.69999694824219 -14.744999885559082 0 -1
118.80000305175781 75.69999694824219 -12.708999633789062 0 -1
111.5 74.19999694824219 -11.78600025177002 0 -1
122.0999984741211 83.5999984741211 -13.777999877929688 0 -1
116.9000015258789 94.69999694824219 -12.979000091552734 0 -1
121.69999694824219 78.4000015258789 -13.404999732971191 0 -1
112.9000015258789 86.9000015258789 -16.841999053955078 0 -1
112.80000305175781 77.4000015258789 -14.170000076293945 0 -1
114.5 89.30000305175781 -16.20400047302246 0 -1
110.30000305175781 80.69999694824219 -12.706999778747559 0 -1
115 83.80000305175781 -14.489999771118164 0 -1
122.4000015258789 83.30000305175781 -13.496000289916992 0 -1
111.80000305175781 94.19999694824219 -10.637999534606934 0 -1
119.4000015258789 86.5 -13.970000267028809 0 -1
119.80000305175781 83.4000015258789 1.305999994277954 1 -1
115.19999694824219 79.69999694824219 -12.246999740600586 0 -1
114.0999984741211 77 -14.982000350952148 0 -1
113.5999984741211 79.0999984741211 -14.661999702453613 0 -1
121.5 86.80000305175781 -14.734999656677246 0 -1
121.4000015258789 83.5 -13.71500015258789 0 -1
120.5 86.69999694824219 -13.888999938964844 0 -1
120.69999694824219 79.30000305175781 -13.21399974822998 0 -1
117.4000015258789 80.5 -12.854000091552734 0 -1
113.69999694824219 88.9000015258789 -15.9399995803833 0 -1
120.69999694824219 81.4000015258789 6.500999927520752 1 -1
112.0999984741211 82.5 -14.281999588012695 0 -1
114.30000305175781 92.5999984741211 -14.85099983215332 0 -1
110.80000305175781 88.69999694824219 -17.226999282836914 0 -1
115.5999984741211 91.0999984741211 -15.98799991607666 0 -1
119 93.5 -14.880000114440918 0 -1
118.5 87 -14.458999633789062 0 -1
118.4000015258789 75.69999694824219 -12.746999740600586 0 -1
111.69999694824219 86.80000305175781 -16.246000289916992 0 -1
119.5 92.30000305175781 -16.52400016784668 0 -1
115.9000015258789 94.19999694824219 -12.97700023651123 0 -1
116.19999694824219 86.19999694824219 -15.104999542236328 0 -1
117 93.9000015258789 -14.229000091552734 0 -1
115.0999984741211 93.30000305175781 -13.949000358581543 0 -1
110.5999984741211 86.30000305175781 -17.79199981689453 0 -1
119.5999984741211 82.30000305175781 2.2190001010894775 1 -1
122.5999984741211 85.0999984741211 -14.937999725341797 0 -1
122.30000305175781 78.4000015258789 -13.097999572753906 0 -1
118.69999694824219 85.80000305175781 -14.234000205993652 0 -1
112.19999694824219 87.9000015258789 -16.55900001525879 0 -1
111.80000305175781 76.30000305175781 -13.79800033569336 0 -1
112.30000305175781 92.80000305175781 -12.956999778747559 0 -1
120.30000305175781 82.5 5.9720001220703125 1 -1
122.5 89.69999694824219 -15.201000213623047 0 -1
116 84.5999984741211 -13.88599967956543 0 -1
114.69999694824219 78.30000305175781 -13.430999755859375 0 -1
111.5999984741211 81.80000305175781 -14.276000022888184 0 -1
122.0999984741211 83.69999694824219 -13.82699966430664 0 -1
113.30000305175781 91.9000015258789 -15.5600004196167 0 -1
114 80.19999694824219 -13.739999771118164 0 -1
120.30000305175781 84.5999984741211 1.7389999628067017 1 -1
110.19999694824219 88.5999984741211 -17.32200050354004 0 -1
110.69999694824219 74 5.732999801635742 3 -1
121.69999694824219 78.5 -13.369000434875488 0 -1
121 83.5999984741211 -13.58899974822998 0 -1
110.5999984741211 86.5 -17.844999313354492 0 -1
113.4000015258789 92.30000305175781 -14.430000305175781 0 -1
118 78.69999694824219 -13.163000106811523 0 -1
120.30000305175781 81.5 -14.015999794006348 0 -1
120 88.5999984741211 -13.944000244140625 0 -1
112.4000015258789 77.5999984741211 -14.232000350952148 0 -1
122 84.69999694824219 2.246000051498413 1 -1
113.4000015258789 92.4000015258789 -14.03499984741211 0 -1
119.4000015258789 86.4000015258789 -14.225000381469727 0 -1
113 90.4000015258789 -16.325000762939453 0 -1
120.80000305175781 80.69999694824219 4.577000141143799 1 -1
121.5999984741211 81.5999984741211 6.75600004196167 1 -1
119.80000305175781 84.5 -14.255000114440918 0 -1
111 75.0999984741211 -11.866999626159668 0 -1
112.9000015258789 86.80000305175781 -16.91699981689453 0 -1
117.4000015258789 80.4000015258789 -12.935999870300293 0 -1
122.19999694824219 87.5 -15.069999694824219 0 -1
112.80000305175781 92.69999694824219 -12.732000350952148 0 -1
115.5999984741211 77.69999694824219 -12.071999549865723 0 -1
117.69999694824219 87.5999984741211 -14.6850004196167 0 -1
112.69999694824219 81.69999694824219 -13.994999885559082 0 -1
115.80000305175781 81.5 -12.487000465393066 0 -1
111.30000305175781 82.4000015258789 -13.930000305175781 0 -1
110.69999694824219 80.19999694824219 -12.906000137329102 0 -1
118.4000015258789 75.5999984741211 -12.741000175476074 0 -1
120.5999984741211 81.5 6.447000026702881 1 -1
120.19999694824219 94.69999694824219 -14.855999946594238 0 -1
115.69999694824219 90 -15.380000114440918 0 -1
121.4000015258789 83.69999694824219 -13.574000358581543 0 -1
110.5 80 -12.67300033569336 0 -1
120.4000015258789 91.80000305175781 -16.29800033569336 0 -1
117.5999984741211 90.9000015258789 -15.60200023651123 0 -1
119.4000015258789 83.5 2.117000102996826 1 -1
122.5999984741211 85 -14.906999588012695 0 -1
119.0999984741211 83.9000015258789 0.8090000152587891 1 -1
114.5999984741211 86 -15.89799976348877 0 -1
121.69999694824219 80.5 4.364999771118164 1 -1
111.0999984741211 91.5999984741211 -14.685999870300293 0 -1
120.80000305175781 82.0999984741211 6.370999813079834 1 -1
116.9000015258789 79.30000305175781 -11.729000091552734 0 -1
111.19999694824219 75.30000305175781 -11.996999740600586 0 -1
122.69999694824219 88.4000015258789 -15.366999626159668 0 -1
114.80000305175781 75.69999694824219 -13.972999572753906 0 -1
117.19999694824219 87 -14.07699966430664 0 -1
117.30000305175781 85.30000305175781 -13.71399974822998 0 -1
119.5 77 -12.869999885559082 0 -1
115.0999984741211 93.19999694824219 -13.970999717712402 0 -1
123 83.0999984741211 -13.713000297546387 0 -1
113.4000015258789 77 -15.107000350952148 0 -1
116.80000305175781 88.80000305175781 -14.994999885559082 0 -1
110.4000015258789 76.4000015258789 -11.812999725341797 0 -1
113.5 91.69999694824219 -14.744000434875488 0 -1
122.5 89.5999984741211 -15.147000312805176 0 -1
111.5999984741211 81.9000015258789 -14.190999984741211 0 -1
115.80000305175781 94.80000305175781 -11.902000427246094 0 -1
113.30000305175781 91.80000305175781 -15.685999870300293 0 -1
121.5 87 -14.67300033569336 0 -1
117.80000305175781 80.0999984741211 -12.991000175476074 0 -1
110.19999694824219 88.69999694824219 -17.381000518798828 0 -1
110.9000015258789 77.9000015258789 -12.848999977111816 0 -1
113.19999694824219 94.5999984741211 -10.819999694824219 0 -1
116.30000305175781 91.69999694824219 -15.704999923706055 0 -1
116.80000305175781 88.5999984741211 -14.972000122070312 0 -1
113.80000305175781 85 -15.04800033569336 0 -1
113.9000015258789 86.0999984741211 -15.64900016784668 0 -1
120.0999984741211 81.80000305175781 1.8300000429153442 1 -1
111.30000305175781 82.19999694824219 -14.458999633789062 0 -1
121.0999984741211 81.0999984741211 6.623000144958496 1 -1
117.5999984741211 91 -15.58899974822998 0 -1
112 86 -16.242000579833984 0 -1
113.0999984741211 84.5999984741211 -14.28499984741211 0 -1
114.19999694824219 89.5 -16.339000701904297 0 -1
122.80000305175781 81.30000305175781 3.38100004196167 1 -1
122.9000015258789 87.80000305175781 -15.293000221252441 0 -1
118.5 86.80000305175781 -14.289999961853027 0 -1
110.69999694824219 80.30000305175781 -12.86400032043457 0 -1
119.9000015258789 83.4000015258789 -13.880000114440918 0 -1
119.80000305175781 84.5999984741211 -14.244999885559082 0 -1
122 86.5999984741211 -14.911999702453613 0 -1
115.69999694824219 90.0999984741211 -15.444000244140625 0 -1
122.30000305175781 80.80000305175781 3.736999988555908 1 -1
115.4000015258789 94.80000305175781 -11.869000434875488 0 -1
113.4000015258789 76.5999984741211 -15.029999732971191 0 -1
117.5999984741211 75.5999984741211 -12.723999977111816 0 -1
118.69999694824219 86 -14.185999870300293 0 -1
120.30000305175781 80.30000305175781 3.9730000495910645 1 -1
121.69999694824219 80.4000015258789 4.297999858856201 1 -1
112.19999694824219 87.69999694824219 -16.55900001525879 0 -1
112.30000305175781 93 -11.982000350952148 0 -1
114.0999984741211 90.30000305175781 -15.996000289916992 0 -1
122.0999984741211 83.5 -13.850000381469727 0 -1
118.19999694824219 84.80000305175781 -14.107999801635742 0 -1
119 76.0999984741211 -12.321000099182129 0 -1
115.5 87.19999694824219 -15.95199966430664 0 -1
111.5 93.5999984741211 -10.965999603271484 0 -1
120.80000305175781 82 7.205999851226807 1 -1
112.4000015258789 77.80000305175781 -14.418999671936035 0 -1
120.9000015258789 87 -14.090999603271484 0 -1
112.30000305175781 77.5999984741211 -14.437000274658203 0 -1
111.0999984741211 91.4000015258789 -14.715999603271484 0 -1
117.9000015258789 92.9000015258789 -14.960000038146973 0 -1
118.9000015258789 75.80000305175781 -12.654000282287598 0 -1
119.19999694824219 84.0999984741211 1.2289999723434448 1 -1
110.30000305175781 80 -12.402000427246094 0 -1
112.5 78.4000015258789 -14.329000473022461 0 -1
111.80000305175781 94.0999984741211 -10.803999900817871 0 -1
112.9000015258789 89.30000305175781 -15.77400016784668 0 -1
122.4000015258789 83.19999694824219 -13.699999809265137 0 -1
114.9000015258789 81.0999984741211 -13.618000030517578 0 -1
116.9000015258789 94.5999984741211 -12.722999572753906 0 -1
114.5999984741211 84 -13.793999671936035 0 -1
118.4000015258789 91 -15.829000473022461 0 -1
114 80 -13.871999740600586 0 -1
120.19999694824219 79.30000305175781 -12.998000144958496 0 -1
121.30000305175781 80.69999694824219 4.920000076293945 1 -1
118.5 86.9000015258789 -14.13700008392334 0 -1
118.0999984741211 80.80000305175781 -12.800999641418457 0 -1
121.0999984741211 81.19999694824219 5.025000095367432 1 -1
114.4000015258789 89.80000305175781 -15.970000267028809 0 -1
113.19999694824219 78.4000015258789 -14.829000473022461 0 -1
111.69999694824219 86.9000015258789 -16.26799964904785 0 -1
119.5 92.4000015258789 -16.527999877929688 0 -1
113.69999694824219 88.80000305175781 -15.956999778747559 0 -1
115.0999984741211 93.4000015258789 -13.967000007629395 0 -1
115.4000015258789 94.9000015258789 -11.85200023651123 0 -1
120.19999694824219 83.5999984741211 1.375 1 -1
121.30000305175781 92 -15.906999588012695 0 -1
120.5999984741211 83.19999694824219 5.9070000648498535 1 -1
112 85.9000015258789 -15.946999549865723 0 -1
119.5999984741211 82.19999694824219 -13.859999656677246 0 -1
113.30000305175781 92.5 -14.03499984741211 0 -1
118.9000015258789 93.19999694824219 -14.987000465393066 0 -1
112.19999694824219 87.80000305175781 -16.589000701904297 0 -1
113 76.5 -14.314000129699707 0 -1
116.19999694824219 86.30000305175781 -15.20300006866455 0 -1
115.9000015258789 94.0999984741211 -12.682999610900879 0 -1
115.4000015258789 81.5 -13.272000312805176 0 -1
113.80000305175781 85.5 -15.593999862670898 0 -1
117.80000305175781 79.9000015258789 -12.991000175476074 0 -1
111.0999984741211 91.5 -14.659000396728516 0 -1
110.5 80.19999694824219 -12.321999549865723 0 -1
110.5999984741211 86.4000015258789 -17.792999267578125 0 -1
118.9000015258789 75.9000015258789 -12.470999717712402 0 -1
117.5 79.80000305175781 -12.789999961853027 0 -1
119.69999694824219 87.0999984741211 -14.52299976348877 0 -1
115.30000305175781 94.0999984741211 -12.97599983215332 0 -1
112.0999984741211 82.9000015258789 -13.937999725341797 0 -1
111.0999984741211 80.19999694824219 -12.89799976348877 0 -1
112.5 78.5 -14.390999794006348 0 -1
114.30000305175781 92.19999694824219 -15.557000160217285 0 -1
119.5 76.80000305175781 -12.847999572753906 0 -1
113 91.9000015258789 -15.522000312805176 0 -1
121 83.69999694824219 -13.678999900817871 0 -1
117.9000015258789 92.80000305175781 -14.970000267028809 0 -1
111.4000015258789 86.5999984741211 -16.201000213623047 0 -1
117.5 94.80000305175781 -12.588000297546387 0 -1
117.0999984741211 81.5999984741211 -12.564000129699707 0 -1
110.80000305175781 88.80000305175781 -17.222999572753906 0 -1
115.69999694824219 89.9000015258789 -15.5600004196167 0 -1
111.5 93.30000305175781 -11.850000381469727 0 -1
110.4000015258789 76.19999694824219 -11.833000183105469 0 -1
120 88.69999694824219 -14.031000137329102 0 -1
112.4000015258789 77.69999694824219 -14.402999877929688 0 -1
121.19999694824219 94.80000305175781 -14.64900016784668 0 -1
122.5 89.80000305175781 -15.168999671936035 0 -1
110.69999694824219 91.5999984741211 -17.4060001373291 0 -1
116 84.5 -13.854000091552734 0 -1
121.9000015258789 84.80000305175781 2.134999990463257 1 -1
111.80000305175781 76.69999694824219 -14.092000007629395 0 -1
120.19999694824219 94.5999984741211 -14.774999618530273 0 -1
120.0999984741211 83.0999984741211 -14.305000305175781 0 -1
119.5999984741211 82.4000015258789 -13.859999656677246 0 -1
121.4000015258789 83.5999984741211 -13.621000289916992 0 -1
120.69999694824219 85.5999984741211 -13.991999626159668 0 -1
121 83.19999694824219 -13.890999794006348 0 -1
117.5999984741211 90.80000305175781 -15.265000343322754 0 -1
114.4000015258789 89.9000015258789 -15.968000411987305 0 -1
116.9000015258789 94.30000305175781 -13.986000061035156 0 -1
118.4000015258789 90.9000015258789 -15.763999938964844 0 -1
118.9000015258789 93.30000305175781 -14.994999885559082 0 -1
112.30000305175781 77.80000305175781 -14.402999877929688 0 -1
122.69999694824219 88.5 -15.451000213623047 0 -1
116.0999984741211 89.9000015258789 -15.20300006866455 0 -1
119 93.5999984741211 -14.96399974822998 0 -1
114.5 88.9000015258789 -15.972000122070312 0 -1
121.5999984741211 90.80000305175781 -16.34600067138672 0 -1
123 83 -13.708999633789062 0 -1
120.4000015258789 91.9000015258789 -16.25200080871582 0 -1
111.9000015258789 82.0999984741211 -14.21500015258789 0 -1
117.5999984741211 75.4000015258789 -12.776000022888184 0 -1
119.0999984741211 83.80000305175781 0.7580000162124634 1 -1
113.9000015258789 86.4000015258789 -15.645999908447266 0 -1
113.5 91.80000305175781 -14.86400032043457 0 -1
122.4000015258789 83.4000015258789 -13.699999809265137 0 -1
114.9000015258789 80.9000015258789 -13.618000030517578 0 -1
114.19999694824219 89.19999694824219 -15.890999794006348 0 -1
117.30000305175781 85.19999694824219 -13.717000007629395 0 -1
121.19999694824219 77.4000015258789 -11.854000091552734 0 -1
112.80000305175781 93.5999984741211 -11.887999534606934 0 -1
113 91.80000305175781 -15.76200008392334 0 -1
117.0999984741211 81.69999694824219 -12.612000465393066 0 -1
116.30000305175781 91.80000305175781 -15.519000053405762 0 -1
120.5 87.30000305175781 -14.718999862670898 0 -1
118.30000305175781 87.5999984741211 -14.791999816894531 0 -1
111.30000305175781 82.30000305175781 -14.362000465393066 0 -1
122.80000305175781 81.19999694824219 3.4200000762939453 1 -1
117.9000015258789 77.5 -12.937999725341797 0 -1
118.5999984741211 91.19999694824219 -15.67300033569336 0 -1
114.0999984741211 77.0999984741211 -15.017999649047852 0 -1
121.69999694824219 93.9000015258789 -13.194999694824219 0 -1
111.19999694824219 75.69999694824219 -12.605999946594238 0 -1
117.19999694824219 86.5999984741211 -14.170000076293945 0 -1
116.80000305175781 88.69999694824219 -14.803000450134277 0 -1
111.5 93.19999694824219 -11.916000366210938 0 -1
115.30000305175781 94.19999694824219 -11.819000244140625 0 -1
115 83.9000015258789 -14.586000442504883 0 -1
120.0999984741211 81.9000015258789 1.7970000505447388 1 -1
115.5999984741211 91 -15.947999954223633 0 -1
119.80000305175781 83.30000305175781 1.2630000114440918 1 -1
115.80000305175781 78.30000305175781 -12.380000114440918 0 -1
121.69999694824219 78.0999984741211 -12.569999694824219 0 -1
121.30000305175781 91.30000305175781 -16.097000122070312 0 -1
121.19999694824219 94.5999984741211 -14.64900016784668 0 -1
112.19999694824219 87.5999984741211 -15.925999641418457 0 -1
121.30000305175781 80 4.224999904632568 1 -1
118.30000305175781 88 -14.777000427246094 0 -1
120.5999984741211 81.5999984741211 6.754000186920166 1 -1
112.4000015258789 94.80000305175781 -9.894000053405762 0 -1
113.4000015258789 92 -15.718000411987305 0 -1
122.30000305175781 78.5 -13.810999870300293 0 -1
113.9000015258789 86.5 -15.744999885559082 0 -1
118.69999694824219 85.9000015258789 -14.25100040435791 0 -1
121.69999694824219 93.5 -15.869000434875488 0 -1
119.5 92.19999694824219 -16.514999389648438 0 -1
113.0999984741211 83.4000015258789 -14.086999893188477 0 -1
117 94 -13.991999626159668 0 -1
117.9000015258789 93 -14.890999794006348 0 -1
119.9000015258789 83 1.465999960899353 1 -1
111.9000015258789 82 -14.182000160217285 0 -1
120.80000305175781 80.80000305175781 4.75 1 -1
116.0999984741211 90.0999984741211 -15.232000350952148 0 -1
117.5999984741211 75.5 -12.74899959564209 0 -1
119 76.19999694824219 -12.119999885559082 0 -1
115.5 87.0999984741211 -15.996999740600586 0 -1
119.19999694824219 84 0.656000018119812 1 -1
110.30000305175781 80.0999984741211 -12.37600040435791 0 -1
118.5 86.69999694824219 -14.006999969482422 0 -1
116.19999694824219 86.5 -14.746999740600586 0 -1
111.80000305175781 94 -10.779999732971191 0 -1
116 84.69999694824219 -13.918000221252441 0 -1
114.69999694824219 78.19999694824219 -13.845000267028809 0 -1
