VERSION .7
FIELDS x y z label object
SIZE 4 4 4 4 4
TYPE F F F I I
COUNT 1 1 1 1 1
WIDTH 864
HEIGHT 1
POINTS 864
VIEWPOINT 0 0 0 1 0 0 0
DATA ascii
114.19999694824219 85.0999984741211 -15.996000289916992 0 -1
113.9000015258789 82.4000015258789 -14.21500015258789 0 -1
115.69999694824219 91 -16.767000198364258 0 -1
121.19999694824219 90.5 -13.234000205993652 1 -1
115.5 76.80000305175781 -13.857000350952148 0 -1
116 80.5999984741211 -11.604999542236328 0 -1
114.69999694824219 82.30000305175781 -13.73799991607666 0 -1
114.0999984741211 94.5 -13.29699993133545 0 -1
119.5 88.0999984741211 -14.343999862670898 0 -1
117.9000015258789 88.9000015258789 -14.781999588012695 0 -1
115.80000305175781 91.5999984741211 -15.994000434875488 0 -1
111.80000305175781 86.80000305175781 -15.970999717712402 0 -1
111.5999984741211 90.69999694824219 -16.808000564575195 0 -1
122.5999984741211 79.69999694824219 -13.493000030517578 0 -1
115.5999984741211 89.9000015258789 -15.897000312805176 0 -1
110.30000305175781 76 -11.956999778747559 0 -1
116.80000305175781 77.69999694824219 -12.913999557495117 0 -1
110.5999984741211 81 -11.901000022888184 0 -1
119.4000015258789 90.4000015258789 -15.234999656677246 0 -1
113.30000305175781 79.30000305175781 -14.569000244140625 0 -1
116.5999984741211 78.19999694824219 -12.609999656677246 0 -1
114 76 -14.137999534606934 0 -1
122 91.5999984741211 -10.857000350952148 1 -1
111.0999984741211 87.19999694824219 -16.277999877929688 0 -1
118.9000015258789 80 -13.097000122070312 0 -1
120.80000305175781 76.69999694824219 -12.086000442504883 0 -1
111 79.0999984741211 -12.79699993133545 0 -1
115.9000015258789 80.9000015258789 -11.940999984741211 0 -1
117.4000015258789 94.0999984741211 -13.539999961853027 0 -1
110.5999984741211 82 -13.317999839782715 0 -1
118.80000305175781 87.19999694824219 -14.543000221252441 0 -1
122.30000305175781 84.30000305175781 -13.932999610900879 0 -1
114.5999984741211 88.19999694824219 -15.956000328063965 0 -1
121.19999694824219 90.5999984741211 -12.916000366210938 1 -1
113.19999694824219 93.69999694824219 -14.890000343322754 0 -1
116.69999694824219 77.4000015258789 -12.916000366210938 0 -1
122.4000015258789 81.5 -13.760000228881836 0 -1
110 82.0999984741211 -12.517000198364258 0 -1
120.9000015258789 82 -13.883000373840332 0 -1
114.19999694824219 85 -15.916999816894531 0 -1
119.80000305175781 81.5999984741211 -13.909000396728516 0 -1
113.4000015258789 80.80000305175781 -14.696000099182129 0 -1
111.19999694824219 84.9000015258789 -14.61299991607666 0 -1
116.5 91 -15.829999923706055 0 -1
116.0999984741211 77.80000305175781 -13.399999618530273 0 -1
112.19999694824219 77.4000015258789 -14.753999710083008 0 -1
113.80000305175781 89.5 -15.854999542236328 0 -1
118 82.9000015258789 -14.41100025177002 0 -1
117.0999984741211 93 -14.824000358581543 0 -1
112.69999694824219 93.30000305175781 -14.82699966430664 0 -1
112.5999984741211 92.5 -16.649999618530273 0 -1
114.69999694824219 82.19999694824219 -13.74899959564209 0 -1
118.9000015258789 80.0999984741211 -12.9399995803833 0 -1
120.19999694824219 90.4000015258789 -13.970000267028809 1 -1
117 80.69999694824219 -12.574999809265137 0 -1
111 79 -12.859999656677246 0 -1
110.80000305175781 84.80000305175781 -14.236000061035156 0 -1
119.5999984741211 94.5999984741211 -13.748000144958496 0 -1
112.80000305175781 78.19999694824219 -14.8100004196167 0 -1
121.9000015258789 80.0999984741211 -14.13700008392334 0 -1
120 84.69999694824219 -14.038000106811523 0 -1
119.0999984741211 78.5999984741211 -12.612000465393066 0 -1
111.0999984741211 76 -14.663000106811523 0 -1
113.69999694824219 84.5999984741211 -15.588000297546387 0 -1
110.30000305175781 75.80000305175781 -11.909000396728516 0 -1
120.0999984741211 87.0999984741211 -14.59000015258789 0 -1
116.0999984741211 77.69999694824219 -12.60200023651123 0 -1
116.5 90.9000015258789 -15.876999855041504 0 -1
112.30000305175781 90 -15.923999786376953 0 -1
112.19999694824219 90.69999694824219 -16.48200035095215 0 -1
111.5999984741211 77.4000015258789 -14.944000244140625 0 -1
114 75.80000305175781 -14.045999526977539 0 -1
121.80000305175781 78.4000015258789 -12.906999588012695 0 -1
120.5 83.4000015258789 -13.609000205993652 0 -1
111 84.19999694824219 -13.90999984741211 0 -1
114.5 84.9000015258789 -15.920999526977539 0 -1
116.0999984741211 93.0999984741211 -13.87399959564209 0 -1
111.5999984741211 90.80000305175781 -16.854999542236328 0 -1
118.19999694824219 81.5999984741211 -14.097000122070312 0 -1
120.5999984741211 92.9000015258789 -15.47599983215332 1 -1
121 87.4000015258789 -13.975000381469727 0 -1
115.30000305175781 89.0999984741211 -15.802000045776367 0 -1
115.4000015258789 82.19999694824219 -13.14799976348877 0 -1
117.5 91.0999984741211 -15.991999626159668 0 -1
117.0999984741211 93.0999984741211 -14.713000297546387 0 -1
117.5999984741211 79.4000015258789 -13.01099967956543 0 -1
119.80000305175781 81.69999694824219 -13.888999938964844 0 -1
122.80000305175781 85.69999694824219 -14.475000381469727 0 -1
116.4000015258789 84.5 -13.876999855041504 0 -1
116.80000305175781 93.0999984741211 -14.720999717712402 0 -1
114.0999984741211 81.4000015258789 -13.720000267028809 0 -1
113.5 87.80000305175781 -15.743000030517578 0 -1
117.30000305175781 89.19999694824219 -14.982999801635742 0 -1
114.19999694824219 85.19999694824219 -15.916999816894531 0 -1
113.0999984741211 87.30000305175781 -15.824000358581543 0 -1
118 85 -14.199000358581543 0 -1
119.19999694824219 80.9000015258789 -13.567999839782715 0 -1
113.9000015258789 82.19999694824219 -13.760000228881836 0 -1
119 89.0999984741211 -14.645000457763672 0 -1
115.9000015258789 81.0999984741211 -11.940999984741211 0 -1
115.30000305175781 89.19999694824219 -15.947999954223633 0 -1
119.19999694824219 81.4000015258789 -13.982999801635742 0 -1
111.80000305175781 89.30000305175781 -15.906999588012695 0 -1
114.9000015258789 85.0999984741211 -15.51200008392334 0 -1
118.80000305175781 87.4000015258789 -14.682000160217285 0 -1
114.0999984741211 94.69999694824219 -13.911999702453613 0 -1
113.19999694824219 93.9000015258789 -14.678999900817871 0 -1
117.19999694824219 82.5999984741211 -12.916000366210938 0 -1
123 81.80000305175781 -13.791999816894531 0 -1
116.19999694824219 90.69999694824219 -15.86400032043457 0 -1
118.0999984741211 85.5999984741211 -14.083999633789062 0 -1
120.4000015258789 78.4000015258789 -12.774999618530273 0 -1
112.0999984741211 79 -14.486000061035156 0 -1
111 84.0999984741211 -13.873000144958496 0 -1
120.5999984741211 77.5 -11.744000434875488 0 -1
114.80000305175781 87.9000015258789 -15.967000007629395 0 -1
111.5999984741211 77.5 -14.982000350952148 0 -1
116.4000015258789 85.5 -14.279000282287598 0 -1
114.30000305175781 79 -12.696999549865723 0 -1
120.5999984741211 92.80000305175781 -15.574999809265137 1 -1
121.80000305175781 78.5 -12.711000442504883 0 -1
118.69999694824219 80.4000015258789 -13.053000450134277 0 -1
116.30000305175781 87.30000305175781 -14.871000289916992 0 -1
115.5 92.0999984741211 -14.916999816894531 0 -1
116.80000305175781 77.80000305175781 -12.595000267028809 0 -1
111.4000015258789 91.0999984741211 -16.709999084472656 0 -1
110.80000305175781 79.69999694824219 -12.911999702453613 0 -1
121.19999694824219 90.4000015258789 -13.888999938964844 1 -1
113 80.5 -13.951000213623047 0 -1
115.80000305175781 91.4000015258789 -15.996999740600586 0 -1
117.80000305175781 83.9000015258789 -14.284000396728516 0 -1
110.5 76.19999694824219 -11.892000198364258 0 -1
115.4000015258789 82.30000305175781 -13.154000282287598 0 -1
112.9000015258789 85.0999984741211 -15.980999946594238 0 -1
116.0999984741211 93.30000305175781 -13.979000091552734 0 -1
112 80.0999984741211 -14.652999877929688 0 -1
113.9000015258789 82.30000305175781 -14.12399959564209 0 -1
115.0999984741211 89.9000015258789 -15.904000282287598 0 -1
110.5999984741211 80.9000015258789 -11.928999900817871 0 -1
115.5 76.69999694824219 -13.812000274658203 0 -1
116.69999694824219 76.19999694824219 -13.4399995803833 0 -1
118 85.0999984741211 -14.057999610900879 0 -1
122.9000015258789 77.19999694824219 -12.621999740600586 0 -1
112.5 83.19999694824219 -14.895000457763672 0 -1
120.69999694824219 89.80000305175781 -13.817999839782715 1 -1
110.4000015258789 80.19999694824219 -12.96500015258789 0 -1
112.0999984741211 79.0999984741211 -14.244000434875488 0 -1
123 81.9000015258789 -13.97700023651123 0 -1
119.5 88.5 -14.470999717712402 0 -1
122.0999984741211 79.30000305175781 -12.77400016784668 0 -1
114.30000305175781 79.0999984741211 -12.559000015258789 0 -1
110 82 -12.383999824523926 0 -1
120.9000015258789 82.0999984741211 -13.883000373840332 0 -1
114.69999694824219 89.80000305175781 -15.98799991607666 0 -1
114.4000015258789 85.9000015258789 -15.758999824523926 0 -1
119.30000305175781 87.80000305175781 -14.425000190734863 0 -1
116.9000015258789 90.30000305175781 -15.920999526977539 0 -1
118.80000305175781 87.30000305175781 -14.626999855041504 0 -1
114.5999984741211 88.30000305175781 -15.968000411987305 0 -1
118.5999984741211 87.5 -14.927000045776367 0 -1
119.9000015258789 87.19999694824219 -14.70199966430664 0 -1
113 80.4000015258789 -14.32699966430664 0 -1
116.0999984741211 77.9000015258789 -12.718000411987305 0 -1
113.80000305175781 89.4000015258789 -15.852999687194824 0 -1
115.19999694824219 84 -13.994000434875488 0 -1
119.5999984741211 94.30000305175781 -14.008999824523926 0 -1
116.19999694824219 81.5 -11.972999572753906 0 -1
116.5999984741211 79.5 -11.390000343322754 0 -1
112 80 -14.732000350952148 0 -1
118.4000015258789 86.69999694824219 -14.092000007629395 0 -1
120.30000305175781 76.0999984741211 -12.168000221252441 0 -1
113.5999984741211 83.5 -14.595999717712402 0 -1
121.5999984741211 77.30000305175781 -11.715999603271484 0 -1
116.5999984741211 79.5999984741211 -11.6899995803833 0 -1
111.69999694824219 90.19999694824219 -16.461999893188477 0 -1
113.69999694824219 84.5 -15.663000106811523 0 -1
117.0999984741211 77.69999694824219 -12.951000213623047 0 -1
112.5 83.30000305175781 -14.776000022888184 0 -1
117.5 90.9000015258789 -15.982000350952148 0 -1
112.9000015258789 85 -15.776000022888184 0 -1
116.0999984741211 93.19999694824219 -13.99899959564209 0 -1
119.5999984741211 78.9000015258789 -12.312999725341797 0 -1
112.69999694824219 93.19999694824219 -14.800000190734863 0 -1
120.69999694824219 89.9000015258789 -15.550000190734863 0 -1
112.5999984741211 92.5999984741211 -16.395000457763672 0 -1
119.30000305175781 87.69999694824219 -14.784000396728516 0 -1
119 89.19999694824219 -15.239999771118164 0 -1
114.4000015258789 86 -15.708999633789062 0 -1
114 91.19999694824219 -15.859000205993652 0 -1
114.5 84.5 -15.510000228881836 0 -1
110.30000305175781 75.9000015258789 -11.949000358581543 0 -1
117 80.80000305175781 -12.48900032043457 0 -1
110.80000305175781 84.9000015258789 -14.619999885559082 0 -1
114.80000305175781 84.0999984741211 -15.404999732971191 0 -1
121.9000015258789 80 -14.017000198364258 0 -1
115 79.9000015258789 -12.197999954223633 0 -1
118.69999694824219 80.5999984741211 -13.204000473022461 0 -1
111.0999984741211 87.0999984741211 -16.200000762939453 0 -1
116.5999984741211 92.80000305175781 -14.850000381469727 0 -1
119.0999984741211 78.5 -12.692000389099121 0 -1
114.0999984741211 81.30000305175781 -13.97599983215332 0 -1
115.5999984741211 86.19999694824219 -15.668999671936035 0 -1
111.4000015258789 90.9000015258789 -16.656999588012695 0 -1
111.0999984741211 75.80000305175781 -14.663000106811523 0 -1
112.80000305175781 78.0999984741211 -14.795999526977539 0 -1
117.4000015258789 76.5999984741211 -12.822999954223633 0 -1
117.30000305175781 89.0999984741211 -14.984999656677246 0 -1
114 75.9000015258789 -14.147000312805176 0 -1
122 91.5 -10.800999641418457 1 -1
118.30000305175781 92 -16.625 0 -1
117.69999694824219 83.80000305175781 -14.239999771118164 0 -1
111.9000015258789 79.80000305175781 -14.756999969482422 0 -1
122.80000305175781 85.5999984741211 -14.293999671936035 0 -1
118.4000015258789 86.5999984741211 -13.902000427246094 0 -1
121.5999984741211 77.19999694824219 -12.09000015258789 0 -1
120.80000305175781 76.30000305175781 -12.137999534606934 0 -1
113.5 87.9000015258789 -15.892000198364258 0 -1
113.0999984741211 87.4000015258789 -15.847000122070312 0 -1
112.30000305175781 88.0999984741211 -15.788000106811523 0 -1
115.69999694824219 93.4000015258789 -13.729999542236328 0 -1
121 87.5 -14.133999824523926 0 -1
117.5 91 -15.463000297546387 0 -1
117.0999984741211 77.80000305175781 -12.442000389099121 0 -1
120.0999984741211 87.5 -14.630000114440918 0 -1
114.80000305175781 84.19999694824219 -15.486000061035156 0 -1
116.80000305175781 77.5999984741211 -12.986000061035156 0 -1
111.80000305175781 89.19999694824219 -15.652999877929688 0 -1
112.0999984741211 78.9000015258789 -15.215999603271484 0 -1
123 81.69999694824219 -13.817999839782715 0 -1
113.4000015258789 80.4000015258789 -14.682000160217285 0 -1
122.4000015258789 81.5999984741211 -14.21399974822998 0 -1
118.0999984741211 85.69999694824219 -14.055999755859375 0 -1
110.5999984741211 81.0999984741211 -11.84000015258789 0 -1
117.4000015258789 94 -13.631999969482422 0 -1
118.80000305175781 87.5 -14.751999855041504 0 -1
111.5 78 -13.722999572753906 0 -1
114.0999984741211 94.5999984741211 -13.986000061035156 0 -1
118.5999984741211 87.30000305175781 -14.527999877929688 0 -1
110.5 77.4000015258789 -12.821000099182129 0 -1
110.80000305175781 79.80000305175781 -12.89900016784668 0 -1
120.80000305175781 76.4000015258789 -12.128000259399414 0 -1
111.0999984741211 75.9000015258789 -14.482000350952148 0 -1
116.4000015258789 85.4000015258789 -14.270999908447266 0 -1
114.30000305175781 80.69999694824219 -13.979999542236328 0 -1
122 91.4000015258789 -10.687999725341797 1 -1
110.4000015258789 80 -11.963000297546387 0 -1
115.19999694824219 84.19999694824219 -14.678000450134277 0 -1
110.5999984741211 82.0999984741211 -13.534000396728516 0 -1
116.5999984741211 92.9000015258789 -14.975000381469727 0 -1
117.5999984741211 94.80000305175781 -12.954999923706055 0 -1
112.19999694824219 91.5999984741211 -16.780000686645508 0 -1
119.19999694824219 81.30000305175781 -13.920000076293945 0 -1
116.30000305175781 87.4000015258789 -14.883999824523926 0 -1
115 80.0999984741211 -12.621999740600586 0 -1
110.19999694824219 84.30000305175781 -13.52299976348877 0 -1
118.19999694824219 81.5 -14.211999893188477 0 -1
116.9000015258789 91 -15.763999938964844 0 -1
115.0999984741211 90.0999984741211 -15.904000282287598 0 -1
117.19999694824219 82.19999694824219 -12.972999572753906 0 -1
114.9000015258789 87 -15.468000411987305 0 -1
117.30000305175781 90.0999984741211 -15.473999977111816 0 -1
119.5999984741211 79.0999984741211 -12.189000129699707 0 -1
111.9000015258789 79.69999694824219 -14.22599983215332 0 -1
115.5 92 -14.79699993133545 0 -1
110.30000305175781 76.19999694824219 -11.956999778747559 0 -1
115.5999984741211 86.0999984741211 -15.597000122070312 0 -1
120 84.80000305175781 -14.204999923706055 0 -1
117.0999984741211 92.19999694824219 -14.986000061035156 0 -1
115.80000305175781 91.5 -15.937999725341797 0 -1
110 82.4000015258789 -12.871999740600586 0 -1
115.4000015258789 82.4000015258789 -13.126999855041504 0 -1
111 78.9000015258789 -12.880000114440918 0 -1
120.19999694824219 90.30000305175781 -14.015000343322754 1 -1
114.0999984741211 78.4000015258789 -14.633000373840332 0 -1
115.5 76.5999984741211 -13.1899995803833 0 -1
111.5 79.69999694824219 -13.791999816894531 0 -1
111.19999694824219 79.69999694824219 -13.493000030517578 0 -1
113.4000015258789 80.5 -14.71399974822998 0 -1
116.0999984741211 93.4000015258789 -13.890999794006348 0 -1
122.30000305175781 84.4000015258789 -14.220999717712402 0 -1
114.19999694824219 84.80000305175781 -15.894000053405762 0 -1
112.9000015258789 85.5 -15.652000427246094 0 -1
118.5999984741211 87.4000015258789 -14.586000442504883 0 -1
118.9000015258789 80.19999694824219 -13.315999984741211 0 -1
113.5999984741211 83.5999984741211 -14.727999687194824 0 -1
112.30000305175781 88.30000305175781 -15.713000297546387 0 -1
117.4000015258789 93.4000015258789 -13.928999900817871 0 -1
117.69999694824219 83.0999984741211 -14.121000289916992 0 -1
122.0999984741211 79.19999694824219 -12.920000076293945 0 -1
112.69999694824219 93.5999984741211 -14.887999534606934 0 -1
115.69999694824219 93.19999694824219 -13.904000282287598 0 -1
112.4000015258789 90.80000305175781 -15.968999862670898 0 -1
114.4000015258789 84 -15.409000396728516 0 -1
114.5999984741211 88.4000015258789 -15.991999626159668 0 -1
116.5999984741211 79.4000015258789 -12.329000473022461 0 -1
116.80000305175781 93 -14.968000411987305 0 -1
123 95 -11.659000396728516 1 -1
117.5 90.30000305175781 -15.217000007629395 0 -1
111.69999694824219 90.30000305175781 -16.69700050354004 0 -1
113.69999694824219 83.4000015258789 -14.989999771118164 0 -1
114 75.69999694824219 -14.0600004196167 0 -1
117.9000015258789 89 -14.913000106811523 0 -1
115.0999984741211 90 -15.904999732971191 0 -1
120.4000015258789 78.80000305175781 -13.519000053405762 0 -1
120.9000015258789 82.19999694824219 -13.878000259399414 0 -1
115.19999694824219 84.0999984741211 -14.654000282287598 0 -1
116.19999694824219 81.5999984741211 -12.3100004196167 0 -1
119.80000305175781 81.80000305175781 -13.888999938964844 0 -1
120.5 83 -13.979000091552734 0 -1
115.30000305175781 89.30000305175781 -15.888999938964844 0 -1
118.5 90.69999694824219 -16.09000015258789 0 -1
113.0999984741211 87.19999694824219 -15.684000015258789 0 -1
121.19999694824219 90.30000305175781 -13.944000244140625 1 -1
114.80000305175781 84 -14.534000396728516 0 -1
112 79.9000015258789 -14.85099983215332 0 -1
122.5999984741211 79.80000305175781 -13.729000091552734 0 -1
112.19999694824219 91.4000015258789 -16.621999740600586 0 -1
119 89.30000305175781 -15.13700008392334 0 -1
110.19999694824219 84.0999984741211 -13.234999656677246 0 -1
113.80000305175781 86.69999694824219 -15.782999992370605 0 -1
111 84 -13.647000312805176 0 -1
118.9000015258789 80.30000305175781 -13.244999885559082 0 -1
119.5999984741211 94.4000015258789 -13.748000144958496 0 -1
121.9000015258789 79.9000015258789 -14.097000122070312 0 -1
112.80000305175781 78 -14.78499984741211 0 -1
115.69999694824219 93.30000305175781 -13.79699993133545 0 -1
114.9000015258789 86.80000305175781 -15.468000411987305 0 -1
119.0999984741211 78.4000015258789 -12.604999542236328 0 -1
112.9000015258789 85.4000015258789 -15.657999992370605 0 -1
114.5 84.5999984741211 -15.66100025177002 0 -1
111.19999694824219 84.80000305175781 -14.493000030517578 0 -1
111.4000015258789 91 -16.684999465942383 0 -1
115.80000305175781 91.30000305175781 -15.913999557495117 0 -1
113.30000305175781 78.9000015258789 -14.430999755859375 0 -1
117.80000305175781 83.80000305175781 -14.269000053405762 0 -1
121.80000305175781 78.5999984741211 -12.817000389099121 0 -1
117.5999984741211 94.5999984741211 -13.395999908447266 0 -1
122.9000015258789 77.0999984741211 -12.038000106811523 0 -1
112.5999984741211 87.5999984741211 -15.880999565124512 0 -1
113.19999694824219 94 -14.732000350952148 0 -1
115.9000015258789 81.19999694824219 -11.949000358581543 0 -1
110.9000015258789 88.80000305175781 -16.191999435424805 0 -1
120.0999984741211 87.4000015258789 -14.605999946594238 0 -1
119.80000305175781 81.9000015258789 -13.871000289916992 0 -1
120.4000015258789 78.5999984741211 -12.774999618530273 0 -1
117.0999984741211 76.80000305175781 -13.081999778747559 0 -1
113 80.80000305175781 -14.432000160217285 0 -1
116.69999694824219 76.0999984741211 -13.39900016784668 0 -1
116.5999984741211 92.69999694824219 -14.975000381469727 0 -1
116.9000015258789 90.9000015258789 -15.894000053405762 0 -1
121 87.0999984741211 -14.305999755859375 0 -1
115.30000305175781 89.4000015258789 -15.956000328063965 0 -1
112.19999694824219 91.5 -16.680999755859375 0 -1
119.19999694824219 81.19999694824219 -13.982999801635742 0 -1
116.30000305175781 87.5 -14.895000457763672 0 -1
115 80 -12.4399995803833 0 -1
110.19999694824219 84.19999694824219 -13.305000305175781 0 -1
118.19999694824219 81.4000015258789 -13.093000411987305 0 -1
114 91.0999984741211 -15.840999603271484 0 -1
119.5 88.4000015258789 -14.36400032043457 0 -1
115.19999694824219 84.30000305175781 -14.864999771118164 0 -1
110.4000015258789 80.0999984741211 -12.968999862670898 0 -1
122.9000015258789 90.4000015258789 -13.852999687194824 1 -1
113.5 88 -15.850000381469727 0 -1
114.69999694824219 89.69999694824219 -15.972999572753906 0 -1
119.5999984741211 79 -12.319999694824219 0 -1
113.9000015258789 85.69999694824219 -15.973999977111816 0 -1
118 85.19999694824219 -14.043999671936035 0 -1
118.5 90.5 -16.024999618530273 0 -1
118.0999984741211 85.30000305175781 -14.043999671936035 0 -1
119.9000015258789 87.9000015258789 -14.38599967956543 0 -1
116.4000015258789 85.30000305175781 -14.383999824523926 0 -1
116.80000305175781 92.30000305175781 -14.86400032043457 0 -1
110.4000015258789 79.9000015258789 -11.973999977111816 0 -1
118.69999694824219 80.19999694824219 -13.053000450134277 0 -1
111 86 -15.942999839782715 0 -1
121.80000305175781 78.69999694824219 -12.979999542236328 0 -1
117.5999984741211 94.69999694824219 -13.440999984741211 0 -1
120.5999984741211 77.80000305175781 -13.138999938964844 0 -1
122.9000015258789 77 -12.427000045776367 0 -1
117.30000305175781 90 -15.477999687194824 0 -1
117.19999694824219 82.30000305175781 -12.66100025177002 0 -1
111.80000305175781 89.0999984741211 -15.685999870300293 0 -1
115.5 91.9000015258789 -14.916999816894531 0 -1
111.4000015258789 91.30000305175781 -16.336999893188477 0 -1
111.30000305175781 78.80000305175781 -13.25 0 -1
120 84.9000015258789 -14.223999977111816 0 -1
117.0999984741211 76.9000015258789 -13.128000259399414 0 -1
115.69999694824219 93.5999984741211 -13.364999771118164 0 -1
117.5999984741211 79.30000305175781 -12.967000007629395 0 -1
122.80000305175781 86 -14.512999534606934 0 -1
121.5999984741211 76.80000305175781 -11.91100025177002 0 -1
115.0999984741211 89.69999694824219 -15.895999908447266 0 -1
115.5 76.5 -13.17300033569336 0 -1
119.30000305175781 87.5999984741211 -14.57699966430664 0 -1
111.5999984741211 76.0999984741211 -14.479000091552734 0 -1
114.30000305175781 80.80000305175781 -13.932999610900879 0 -1
112.5 83.4000015258789 -14.895000457763672 0 -1
116.19999694824219 90.80000305175781 -16.51099967956543 0 -1
113.69999694824219 83.30000305175781 -13.885000228881836 0 -1
117.80000305175781 83.5999984741211 -14.225000381469727 0 -1
123 94.9000015258789 -11.782999992370605 1 -1
113.5999984741211 83.69999694824219 -14.71399974822998 0 -1
112.30000305175781 88.19999694824219 -15.687000274658203 0 -1
113.19999694824219 94.19999694824219 -14.89799976348877 0 -1
115.9000015258789 81.4000015258789 -12.361000061035156 0 -1
116.80000305175781 77 -12.592000007629395 0 -1
120.5999984741211 77.69999694824219 -11.744000434875488 0 -1
120.9000015258789 82.30000305175781 -13.883000373840332 0 -1
114.69999694824219 89.5999984741211 -15.942999839782715 0 -1
114.5999984741211 88.5 -16.822999954223633 0 -1
118.5999984741211 87.69999694824219 -14.927000045776367 0 -1
122.30000305175781 84 -14.272000312805176 0 -1
118 85.30000305175781 -14.036999702453613 0 -1
111.5999984741211 76.19999694824219 -14.295999526977539 0 -1
113.30000305175781 79.0999984741211 -14.569000244140625 0 -1
110.80000305175781 77.9000015258789 -13.821000099182129 0 -1
120.69999694824219 90 -13.817999839782715 1 -1
116.0999984741211 78 -12.85099983215332 0 -1
119.4000015258789 91.0999984741211 -15.784000396728516 0 -1
118.4000015258789 86.5 -14.043999671936035 0 -1
118.5 90.5999984741211 -15.961000442504883 0 -1
112.19999694824219 91.30000305175781 -16.607999801635742 0 -1
117 79.9000015258789 -12.86299991607666 0 -1
113.0999984741211 87.0999984741211 -15.675000190734863 0 -1
111.69999694824219 90.4000015258789 -16.774999618530273 0 -1
110.19999694824219 84 -12.951000213623047 0 -1
116.5999984741211 79.80000305175781 -11.6899995803833 0 -1
113.80000305175781 86.5999984741211 -15.583999633789062 0 -1
110.5 77.5 -12.82800006866455 0 -1
122.0999984741211 79 -12.9350004196167 0 -1
110 82.30000305175781 -12.791000366210938 0 -1
122.4000015258789 81.69999694824219 -13.760000228881836 0 -1
115.5999984741211 86.5 -15.663999557495117 0 -1
115.0999984741211 89.5999984741211 -15.895000457763672 0 -1
117 80.0999984741211 -12.427000045776367 0 -1
112.4000015258789 89.4000015258789 -15.866999626159668 0 -1
114.9000015258789 86.9000015258789 -15.458000183105469 0 -1
114.5 84.69999694824219 -15.711999893188477 0 -1
118.30000305175781 91.30000305175781 -16.42099952697754 0 -1
120.80000305175781 76.5 -12.137999534606934 0 -1
116.9000015258789 91.0999984741211 -15.670999526977539 0 -1
120.0999984741211 87.30000305175781 -14.630000114440918 0 -1
112.69999694824219 93.5 -14.904000282287598 0 -1
122.5999984741211 79.4000015258789 -12.418000221252441 0 -1
115 80.19999694824219 -12.899999618530273 0 -1
111 85.9000015258789 -15.859999656677246 0 -1
110.5999984741211 80.69999694824219 -11.956999778747559 0 -1
110.69999694824219 84.80000305175781 -14.470999717712402 0 -1
112.80000305175781 77.9000015258789 -14.899999618530273 0 -1
117.0999984741211 92.30000305175781 -14.932000160217285 0 -1
114 90.9000015258789 -15.770000457763672 0 -1
119.80000305175781 80.9000015258789 -13.473999977111816 0 -1
120.69999694824219 90.0999984741211 -15.550000190734863 0 -1
112.5 83 -14.513999938964844 0 -1
119.30000305175781 87.5 -14.869999885559082 0 -1
121.9000015258789 80.30000305175781 -14.21500015258789 0 -1
116.30000305175781 87.0999984741211 -14.871000289916992 0 -1
111.9000015258789 79.5999984741211 -13.831000328063965 0 -1
114.0999984741211 78.5 -14.64799976348877 0 -1
118.5999984741211 87.80000305175781 -14.73799991607666 0 -1
118.4000015258789 86.4000015258789 -13.904000282287598 0 -1
121.5999984741211 77 -11.954000473022461 0 -1
110.30000305175781 76.0999984741211 -11.949000358581543 0 -1
117.9000015258789 88.0999984741211 -14.774999618530273 0 -1
112.5999984741211 87.69999694824219 -15.835000038146973 0 -1
113.5999984741211 83.19999694824219 -13.77299976348877 0 -1
111.9000015258789 79.5 -13.826000213623047 0 -1
119.5999984741211 79.69999694824219 -12.774999618530273 0 -1
113.30000305175781 79 -14.574999809265137 0 -1
111.19999694824219 85.19999694824219 -14.913000106811523 0 -1
117.5999984741211 94.5 -13.440999984741211 0 -1
122.0999984741211 79.0999984741211 -13.373000144958496 0 -1
120.4000015258789 78.69999694824219 -12.529000282287598 0 -1
115.5999984741211 86.4000015258789 -15.663999557495117 0 -1
118.19999694824219 81.30000305175781 -14.215999603271484 0 -1
117.4000015258789 93.30000305175781 -14.795000076293945 0 -1
112.30000305175781 88.4000015258789 -15.72700023651123 0 -1
113.4000015258789 80.5999984741211 -14.696000099182129 0 -1
116.80000305175781 92.4000015258789 -14.704000473022461 0 -1
111.0999984741211 87 -16.503000259399414 0 -1
121 87.19999694824219 -14.380000114440918 0 -1
115.4000015258789 82 -13.14799976348877 0 -1
120.0999984741211 87.80000305175781 -14.50100040435791 0 -1
122.80000305175781 85.9000015258789 -14.654000282287598 0 -1
117.30000305175781 89.9000015258789 -15.61400032043457 0 -1
122.30000305175781 84.19999694824219 -14.220999717712402 0 -1
118.30000305175781 91.19999694824219 -16.413000106811523 0 -1
117.69999694824219 83 -14.045000076293945 0 -1
119.0999984741211 78.30000305175781 -12.675000190734863 0 -1
110.69999694824219 84.9000015258789 -14.560999870300293 0 -1
114.80000305175781 84.4000015258789 -15.486000061035156 0 -1
117.0999984741211 92.4000015258789 -14.991999626159668 0 -1
116.19999694824219 91 -15.958999633789062 0 -1
116.4000015258789 85.19999694824219 -14.234999656677246 0 -1
114 75.5999984741211 -13.925000190734863 0 -1
122 91.19999694824219 -10.253999710083008 1 -1
113.5 87.0999984741211 -15.942999839782715 0 -1
111.30000305175781 78.5999984741211 -13.3149995803833 0 -1
116.5999984741211 93.0999984741211 -14.586999893188477 0 -1
114.4000015258789 84.0999984741211 -15.442999839782715 0 -1
113.9000015258789 85.5999984741211 -15.972999572753906 0 -1
118.5 90.4000015258789 -15.689000129699707 0 -1
120.5 83.0999984741211 -13.907999992370605 0 -1
119.19999694824219 81.5999984741211 -14.130999565124512 0 -1
119.80000305175781 81 -13.805999755859375 0 -1
116.80000305175781 76.80000305175781 -13.239999771118164 0 -1
123 81.5999984741211 -13.8100004196167 0 -1
117.5999984741211 79.19999694824219 -13.01099967956543 0 -1
122.4000015258789 81.9000015258789 -13.486000061035156 0 -1
115.5 91.80000305175781 -14.842000007629395 0 -1
115.0999984741211 89.80000305175781 -15.904999732971191 0 -1
118.0999984741211 85.4000015258789 -14.036999702453613 0 -1
112.9000015258789 85.30000305175781 -15.663999557495117 0 -1
114.69999694824219 90.0999984741211 -15.727999687194824 0 -1
114.9000015258789 86.69999694824219 -15.704999923706055 0 -1
117.4000015258789 93.19999694824219 -14.755000114440918 0 -1
116.0999984741211 78.19999694824219 -12.85099983215332 0 -1
115.5 76.4000015258789 -13.1899995803833 0 -1
120.30000305175781 94.0999984741211 -13.741999626159668 1 -1
114.4000015258789 84.19999694824219 -15.409000396728516 0 -1
111.80000305175781 89.5 -15.909000396728516 0 -1
115.80000305175781 91.19999694824219 -15.996999740600586 0 -1
116.19999694824219 90.9000015258789 -16.540000915527344 0 -1
117.19999694824219 82.4000015258789 -12.822999954223633 0 -1
112.0999984741211 79.30000305175781 -14.899999618530273 0 -1
113.69999694824219 83.19999694824219 -13.906999588012695 0 -1
117.80000305175781 83.69999694824219 -14.239999771118164 0 -1
115.4000015258789 82.0999984741211 -13.170999526977539 0 -1
110.9000015258789 88.69999694824219 -16.176000595092773 0 -1
119.9000015258789 88 -14.409000396728516 0 -1
112 80.30000305175781 -14.48900032043457 0 -1
113.30000305175781 79.69999694824219 -13.91100025177002 0 -1
118.5999984741211 87.5999984741211 -14.859000205993652 0 -1
117.9000015258789 88.30000305175781 -14.994999885559082 0 -1
118.9000015258789 80.4000015258789 -13.315999984741211 0 -1
120.5999984741211 76.9000015258789 -12.053999900817871 0 -1
115.9000015258789 81.30000305175781 -11.956999778747559 0 -1
110.30000305175781 75.4000015258789 -11.708999633789062 0 -1
120 84 -14.640999794006348 0 -1
116.0999984741211 78.0999984741211 -12.366000175476074 0 -1
122.0999984741211 78.9000015258789 -12.831000328063965 0 -1
114.5999984741211 88.5999984741211 -15.991999626159668 0 -1
114 75.4000015258789 -13.840999603271484 0 -1
118.80000305175781 87.5999984741211 -14.645000457763672 0 -1
120.19999694824219 91.0999984741211 -10.342000007629395 1 -1
111.5 79.80000305175781 -13.800000190734863 0 -1
113 80.69999694824219 -14.407999992370605 0 -1
113.19999694824219 94.0999984741211 -14.678999900817871 0 -1
111.69999694824219 90.5 -16.69700050354004 0 -1
120.30000305175781 76.69999694824219 -12.121999740600586 0 -1
112.69999694824219 93.9000015258789 -14.90999984741211 0 -1
110 82.19999694824219 -12.932999610900879 0 -1
116.0999984741211 93.5 -13.803999900817871 0 -1
114.0999984741211 78.69999694824219 -13.854999542236328 0 -1
120.30000305175781 94.19999694824219 -13.586999893188477 1 -1
115.30000305175781 89.5 -15.967000007629395 0 -1
117 80 -12.440999984741211 0 -1
122.9000015258789 90.30000305175781 -13.876999855041504 1 -1
114.69999694824219 90 -15.746000289916992 0 -1
116.69999694824219 76 -13.319999694824219 0 -1
111.19999694824219 85 -14.621000289916992 0 -1
114 91 -15.97599983215332 0 -1
112.4000015258789 89.5 -15.86400032043457 0 -1
122.9000015258789 76.9000015258789 -12.038000106811523 0 -1
114.19999694824219 84.9000015258789 -15.838000297546387 0 -1
112 80.19999694824219 -14.861000061035156 0 -1
120.5999984741211 76.80000305175781 -12.065999984741211 0 -1
118.9000015258789 80.5 -13.597000122070312 0 -1
110.80000305175781 78 -13.824999809265137 0 -1
119.5999984741211 95 -14.83899974822998 0 -1
112.9000015258789 85.69999694824219 -15.73799991607666 0 -1
116.80000305175781 92.19999694824219 -14.947999954223633 0 -1
110.4000015258789 79.80000305175781 -11.963000297546387 0 -1
115.69999694824219 93.5 -13.319999694824219 0 -1
118.69999694824219 80.30000305175781 -13.355999946594238 0 -1
111.0999984741211 86.80000305175781 -15.970000267028809 0 -1
122.5999984741211 79.5 -12.324999809265137 0 -1
117.9000015258789 88.19999694824219 -14.868000030517578 0 -1
110.5999984741211 80.80000305175781 -11.984999656677246 0 -1
120.4000015258789 78 -12.312000274658203 0 -1
111.4000015258789 91.19999694824219 -16.422000885009766 0 -1
117.5 90.19999694824219 -15.260000228881836 0 -1
117.0999984741211 77 -13.081999778747559 0 -1
121.80000305175781 78.80000305175781 -12.920000076293945 0 -1
120.5 83.80000305175781 -13.46500015258789 0 -1
121.19999694824219 90.19999694824219 -13.888999938964844 1 -1
116.19999694824219 81.69999694824219 -11.97599983215332 0 -1
113.19999694824219 93.30000305175781 -14.75 0 -1
116.4000015258789 85.0999984741211 -14.21500015258789 0 -1
120.9000015258789 82.4000015258789 -13.850000381469727 0 -1
120.0999984741211 87.69999694824219 -14.574000358581543 0 -1
113.5999984741211 83.30000305175781 -13.812999725341797 0 -1
112.5999984741211 87.80000305175781 -15.880999565124512 0 -1
118.19999694824219 81.19999694824219 -13.093000411987305 0 -1
119.5 88.5999984741211 -14.48900032043457 0 -1
113 80.0999984741211 -13.66100025177002 0 -1
117.5999984741211 79 -12.942000389099121 0 -1
118.4000015258789 86.30000305175781 -13.937000274658203 0 -1
117.80000305175781 83.5 -14.432999610900879 0 -1
122.9000015258789 90.19999694824219 -13.899999618530273 1 -1
122.80000305175781 85.80000305175781 -14.512999534606934 0 -1
112.80000305175781 78.80000305175781 -14.79699993133545 0 -1
113.9000015258789 85.9000015258789 -15.845999717712402 0 -1
118 85.4000015258789 -14.043999671936035 0 -1
121.5 90.69999694824219 -10.465999603271484 1 -1
111.19999694824219 85.0999984741211 -14.84000015258789 0 -1
116.69999694824219 75.80000305175781 -13.319999694824219 0 -1
115.9000015258789 81.5 -12.38700008392334 0 -1
110 83.69999694824219 -12.720000267028809 0 -1
110.5 77.5999984741211 -12.89799976348877 0 -1
111.0999984741211 86.9000015258789 -16.62299919128418 0 -1
111.30000305175781 78.69999694824219 -13.354999542236328 0 -1
117.30000305175781 89.80000305175781 -15.583000183105469 0 -1
118.80000305175781 87.80000305175781 -14.491999626159668 0 -1
113.80000305175781 87 -15.829999923706055 0 -1
122.30000305175781 84.0999984741211 -14.116000175476074 0 -1
117.0999984741211 77.0999984741211 -13.050000190734863 0 -1
119.0999984741211 78.19999694824219 -12.685999870300293 0 -1
116.19999694824219 91.0999984741211 -15.949000358581543 0 -1
114.30000305175781 80.4000015258789 -13.958999633789062 0 -1
119.4000015258789 91 -15.673999786376953 0 -1
122.4000015258789 81.80000305175781 -13.958999633789062 0 -1
114.5 84.30000305175781 -15.510000228881836 0 -1
118.0999984741211 85.5 -14.079999923706055 0 -1
116.80000305175781 95 4.307000160217285 3 -1
116.9000015258789 90.69999694824219 -15.98799991607666 0 -1
116.80000305175781 76.9000015258789 -13.187999725341797 0 -1
113 80 -13.817999839782715 0 -1
116.0999984741211 78.30000305175781 -12.366000175476074 0 -1
114.19999694824219 84.5999984741211 -15.831999778747559 0 -1
115.5 91.69999694824219 -14.873000144958496 0 -1
121.69999694824219 89.9000015258789 -15.196000099182129 0 -1
115.19999694824219 84.4000015258789 -14.87399959564209 0 -1
119.19999694824219 81.5 -13.993000030517578 0 -1
111.80000305175781 89.4000015258789 -15.909000396728516 0 -1
113.9000015258789 86 -15.817000389099121 0 -1
117.5999984741211 79.0999984741211 -12.989999771118164 0 -1
111.5999984741211 75.80000305175781 -14.347999572753906 0 -1
115.5 76.30000305175781 -13.133000373840332 0 -1
116.80000305175781 77.19999694824219 -12.592000007629395 0 -1
118.5 90.30000305175781 -15.637999534606934 0 -1
120.30000305175781 94 -13.586999893188477 1 -1
117 80.19999694824219 -12.440999984741211 0 -1
117.5 90.5 -15.609000205993652 0 -1
115.5999984741211 86.30000305175781 -15.6899995803833 0 -1
118 85.5 -14.036999702453613 0 -1
117.9000015258789 88.4000015258789 -14.965999603271484 0 -1
118.0999984741211 85 -14.13599967956543 0 -1
111 85.80000305175781 -15.868000030517578 0 -1
113.5 87.19999694824219 -15.890000343322754 0 -1
112.0999984741211 79.19999694824219 -14.704999923706055 0 -1
114 90.80000305175781 -15.770999908447266 0 -1
119.5999984741211 79.80000305175781 -13.015999794006348 0 -1
114.30000305175781 80.5 -13.890000343322754 0 -1
110.30000305175781 75.5 -11.652999877929688 0 -1
110.9000015258789 88.5999984741211 -16.15999984741211 0 -1
121.80000305175781 85 -14.87399959564209 0 -1
112.5 83.0999984741211 -14.776000022888184 0 -1
119.4000015258789 90.9000015258789 -15.784000396728516 0 -1
116.30000305175781 87.19999694824219 -14.854999542236328 0 -1
115 80.30000305175781 -12.854000091552734 0 -1
111.0999984741211 86.69999694824219 -15.991999626159668 0 -1
121.5999984741211 86.9000015258789 -14.28600025177002 0 -1
120.5999984741211 77 -12.036999702453613 0 -1
120.19999694824219 91 -10.229000091552734 1 -1
123 81.5 -13.460000038146973 0 -1
119.69999694824219 91.9000015258789 -12.935999870300293 1 -1
113.4000015258789 80.19999694824219 -13.819000244140625 0 -1
120 84.0999984741211 -13.588000297546387 0 -1
114.19999694824219 84.5 -15.892000198364258 0 -1
119.30000305175781 87.4000015258789 -14.800000190734863 0 -1
113.0999984741211 88 -15.732999801635742 0 -1
117.19999694824219 82 -12.972999572753906 0 -1
114.5999984741211 88.69999694824219 -16.829999923706055 0 -1
114 75.5 -13.925999641418457 0 -1
118.80000305175781 87.69999694824219 -14.692000389099121 0 -1
111.69999694824219 75.19999694824219 -14.282999992370605 0 -1
119.9000015258789 87.5999984741211 -14.557999610900879 0 -1
110.69999694824219 84.5 -14.159000396728516 0 -1
111.9000015258789 79.4000015258789 -13.831000328063965 0 -1
113.69999694824219 83.0999984741211 -13.885000228881836 0 -1
120.30000305175781 76.5999984741211 -11.984000205993652 0 -1
121 76.5999984741211 -12.07699966430664 0 -1
112.30000305175781 88.5 -15.713000297546387 0 -1
116.19999694824219 81.9000015258789 -12.972000122070312 0 -1
112.69999694824219 93.80000305175781 -14.993000030517578 0 -1
114.0999984741211 78.5999984741211 -13.9350004196167 0 -1
117.5 90.5999984741211 -15.62600040435791 0 -1
111.30000305175781 78.5 -13.354999542236328 0 -1
111.69999694824219 90.5999984741211 -16.774999618530273 0 -1
111 85.69999694824219 -15.699000358581543 0 -1
110.5999984741211 80.5 -11.949000358581543 0 -1
123 94.80000305175781 -12.083999633789062 1 -1
111.5999984741211 75.9000015258789 -14.357000350952148 0 -1
122.0999984741211 80.80000305175781 -13.85200023651123 0 -1
117.0999984741211 92.5 -14.96500015258789 0 -1
112.4000015258789 89.19999694824219 -15.958000183105469 0 -1
119.30000305175781 87.30000305175781 -14.869999885559082 0 -1
115.80000305175781 92.0999984741211 -14.934000015258789 0 -1
110.80000305175781 78.0999984741211 -13.79800033569336 0 -1
113.5999984741211 83.4000015258789 -13.77299976348877 0 -1
121.5999984741211 86.80000305175781 -14.628999710083008 0 -1
120.9000015258789 81.5 -13.956999778747559 0 -1
121.9000015258789 79.5999984741211 -13.059000015258789 0 -1
110.5 77.80000305175781 -12.968000411987305 0 -1
111.19999694824219 85.4000015258789 -14.913000106811523 0 -1
121.80000305175781 85.0999984741211 -14.607999801635742 0 -1
113.19999694824219 93.19999694824219 -14.529999732971191 0 -1
116.4000015258789 85 -14.154000282287598 0 -1
115.19999694824219 84.5999984741211 -14.96399974822998 0 -1
112.4000015258789 89.0999984741211 -15.994000434875488 0 -1
110.69999694824219 84.5999984741211 -14.305999755859375 0 -1
112.19999694824219 91.19999694824219 -16.621999740600586 0 -1
117.4000015258789 76.19999694824219 -12.58899974822998 0 -1
116.5999984741211 79.69999694824219 -11.390000343322754 0 -1
112 80.5999984741211 -14.473999977111816 0 -1
119.80000305175781 81.0999984741211 -13.907999992370605 0 -1
113.4000015258789 80.30000305175781 -13.732999801635742 0 -1
115 80.5 -12.854000091552734 0 -1
117.69999694824219 83.4000015258789 -14.333999633789062 0 -1
119.5 88.69999694824219 -14.506999969482422 0 -1
116.19999694824219 81.80000305175781 -12.819000244140625 0 -1
119.80000305175781 81.19999694824219 -13.805000305175781 0 -1
116.80000305175781 92.5999984741211 -14.645999908447266 0 -1
122.5999984741211 78.19999694824219 -12.72599983215332 0 -1
120.0999984741211 87.5999984741211 -14.562999725341797 0 -1
112.5999984741211 87.9000015258789 -15.743000030517578 0 -1
114.9000015258789 86.5999984741211 -15.538999557495117 0 -1
117.30000305175781 89.69999694824219 -15.61400032043457 0 -1
114.5 84.4000015258789 -15.47599983215332 0 -1
111.9000015258789 79.30000305175781 -13.826000213623047 0 -1
115.4000015258789 82.69999694824219 -13.315999984741211 0 -1
117.0999984741211 92.5999984741211 -14.991999626159668 0 -1
122 77.80000305175781 -12.230999946594238 0 -1
116.69999694824219 75.9000015258789 -13.39900016784668 0 -1
110 83.5999984741211 -12.989999771118164 0 -1
114.4000015258789 84.30000305175781 -15.442999839782715 0 -1
111.5 79.4000015258789 -14.784000396728516 0 -1
116.0999984741211 93.5999984741211 -13.890999794006348 0 -1
113.9000015258789 85.80000305175781 -15.875 0 -1
113.80000305175781 86.9000015258789 -15.965999603271484 0 -1
122.30000305175781 85.80000305175781 -14.512999534606934 0 -1
115.30000305175781 89.5999984741211 -15.902000427246094 0 -1
117.5999984741211 78.9000015258789 -12.965999603271484 0 -1
119 89.5999984741211 -15.461999893188477 0 -1
117.4000015258789 93.5999984741211 -13.574999809265137 0 -1
112.80000305175781 78.69999694824219 -14.916000366210938 0 -1
118.80000305175781 87.9000015258789 -14.454000473022461 0 -1
117.4000015258789 76.0999984741211 -12.656999588012695 0 -1
119.0999984741211 78.0999984741211 -12.736000061035156 0 -1
111.19999694824219 85.5 -14.991000175476074 0 -1
110.30000305175781 75.30000305175781 -11.670000076293945 0 -1
114.80000305175781 84.30000305175781 -15.402999877929688 0 -1
112.30000305175781 88.69999694824219 -15.739999771118164 0 -1
117.5999984741211 94.4000015258789 -13.675999641418457 0 -1
122.5999984741211 78.0999984741211 -12.909000396728516 0 -1
118.19999694824219 81.0999984741211 -13.5600004196167 0 -1
114.4000015258789 84.4000015258789 -15.5600004196167 0 -1
120.4000015258789 77.9000015258789 -12.225000381469727 0 -1
118.69999694824219 79.9000015258789 -12.538999557495117 0 -1
110.9000015258789 89 -16.034000396728516 0 -1
114.19999694824219 84.69999694824219 -15.753999710083008 0 -1
114 75.30000305175781 -13.833999633789062 0 -1
115.5 91.5999984741211 -14.873000144958496 0 -1
111.4000015258789 91.5999984741211 -16.30900001525879 0 -1
115.19999694824219 84.5 -14.779999732971191 0 -1
114.69999694824219 89.9000015258789 -15.824000358581543 0 -1
116.69999694824219 76.69999694824219 -12.819999694824219 0 -1
115.9000015258789 81.5999984741211 -12.505000114440918 0 -1
121.5999984741211 87 -14.404999732971191 0 -1
115.30000305175781 89.69999694824219 -15.920000076293945 0 -1
115.4000015258789 82.80000305175781 -13.295000076293945 0 -1
118.0999984741211 85.0999984741211 -14.164999961853027 0 -1
113.5 87.30000305175781 -15.923999786376953 0 -1
114.0999984741211 78.80000305175781 -13.9350004196167 0 -1
122.4000015258789 79.9000015258789 -13.741000175476074 0 -1
115.5 76.19999694824219 -13.135000228881836 0 -1
116.80000305175781 77.30000305175781 -12.82699966430664 0 -1
120 84.19999694824219 -13.954999923706055 0 -1
117.5 90.4000015258789 -15.62600040435791 0 -1
113.19999694824219 93.4000015258789 -14.529999732971191 0 -1
116.5999984741211 93 -14.850000381469727 0 -1
116.19999694824219 90.19999694824219 -15.92199993133545 0 -1
116.4000015258789 86 -14.48799991607666 0 -1
120.19999694824219 90.9000015258789 -10.342000007629395 1 -1
119.19999694824219 81.9000015258789 -13.836000442504883 0 -1
112.9000015258789 85.5999984741211 -15.680000305175781 0 -1
111.80000305175781 89.80000305175781 -15.85099983215332 0 -1
112.0999984741211 79.5 -14.22599983215332 0 -1
120.5 83.9000015258789 -13.508000373840332 0 -1
117.69999694824219 83.19999694824219 -14.045000076293945 0 -1
118.9000015258789 80.5999984741211 -13.6899995803833 0 -1
114.9000015258789 86.4000015258789 -15.87399959564209 0 -1
111.69999694824219 75.30000305175781 -14.255999565124512 0 -1
119.9000015258789 87.69999694824219 -14.666999816894531 0 -1
110.4000015258789 79.69999694824219 -11.973999977111816 0 -1
113.0999984741211 87.9000015258789 -15.791999816894531 0 -1
114.69999694824219 89.30000305175781 -15.927000045776367 0 -1
112.0999984741211 79.5999984741211 -14.199999809265137 0 -1
117.19999694824219 82.0999984741211 -12.701000213623047 0 -1
119.5999984741211 79.4000015258789 -12.675999641418457 0 -1
114.5999984741211 88.80000305175781 -16.83099937438965 0 -1
116.5999984741211 79 -12.789999961853027 0 -1
118.5999984741211 88 -14.62600040435791 0 -1
118.4000015258789 86.19999694824219 -13.904000282287598 0 -1
117.80000305175781 83.4000015258789 -14.369000434875488 0 -1
118 85.5999984741211 -14.079999923706055 0 -1
113.5999984741211 83 -13.734000205993652 0 -1
119.69999694824219 92 -12.64799976348877 1 -1
111.5 79.5999984741211 -13.800000190734863 0 -1
122.80000305175781 82.0999984741211 -13.97700023651123 0 -1
111.69999694824219 90.69999694824219 -16.81599998474121 0 -1
113.69999694824219 83 -13.906999588012695 0 -1
110.5999984741211 80.4000015258789 -12.937999725341797 0 -1
110.80000305175781 78.19999694824219 -13.824999809265137 0 -1
121 76.69999694824219 -11.982000350952148 0 -1
116.9000015258789 90.80000305175781 -15.98799991607666 0 -1
112.69999694824219 93.69999694824219 -14.963000297546387 0 -1
110.5 77.69999694824219 -12.920999526977539 0 -1
116.0999984741211 78.4000015258789 -12.605999946594238 0 -1
115.0999984741211 89.4000015258789 -15.904000282287598 0 -1
117.0999984741211 77.19999694824219 -12.972000122070312 0 -1
112.4000015258789 89.30000305175781 -15.994000434875488 0 -1
110 83.5 -12.942000389099121 0 -1
116.0999984741211 93.80000305175781 -13.916000366210938 0 -1
118.9000015258789 80.69999694824219 -13.767999649047852 0 -1
123 78.30000305175781 -12.473999977111816 0 -1
119.5999984741211 94.80000305175781 -13.184000015258789 0 -1
121.9000015258789 79.5 -14.01099967956543 0 -1
116.30000305175781 87.9000015258789 -15.192999839782715 0 -1
115 80.4000015258789 -12.899999618530273 0 -1
118.69999694824219 80.0999984741211 -12.9399995803833 0 -1
114 90.69999694824219 -15.77400016784668 0 -1
113 79.9000015258789 -14.062999725341797 0 -1
113.30000305175781 79.80000305175781 -13.805999755859375 0 -1
115.5999984741211 86.69999694824219 -15.520000457763672 0 -1
115.19999694824219 84.69999694824219 -14.779999732971191 0 -1
111.4000015258789 91.4000015258789 -16.30900001525879 0 -1
116.19999694824219 81 -11.708999633789062 0 -1
111.5999984741211 76 -14.295999526977539 0 -1
115.69999694824219 93.9000015258789 -13.991000175476074 0 -1
118.30000305175781 91.5 -16.42099952697754 0 -1
111.19999694824219 85.30000305175781 -14.84000015258789 0 -1
116.5999984741211 79.0999984741211 -12.91100025177002 0 -1
122.30000305175781 86 -14.512999534606934 0 -1
122.4000015258789 80.0999984741211 -13.741000175476074 0 -1
122.5999984741211 78.30000305175781 -12.692999839782715 0 -1
117.30000305175781 89.5999984741211 -15.552000045776367 0 -1
111.5 79.5 -13.791999816894531 0 -1
116.0999984741211 93.69999694824219 -13.803999900817871 0 -1
113.80000305175781 86.80000305175781 -15.789999961853027 0 -1
110.5 76.9000015258789 -12.623000144958496 0 -1
121.69999694824219 90.0999984741211 -15.196000099182129 0 -1
117.0999984741211 77.30000305175781 -13.001999855041504 0 -1
114.30000305175781 80.5999984741211 -13.859999656677246 0 -1
118.4000015258789 86.0999984741211 -13.937000274658203 0 -1
117 80.30000305175781 -12.72700023651123 0 -1
112.80000305175781 78.5999984741211 -14.800000190734863 0 -1
119.4000015258789 90.80000305175781 -15.673999786376953 0 -1
120.0999984741211 88 -14.50100040435791 0 -1
116.5999984741211 92.30000305175781 -14.878999710083008 0 -1
112.69999694824219 94.19999694824219 -14.869999885559082 0 -1
116.80000305175781 77.0999984741211 -12.517999649047852 0 -1
