VERSION .7
FIELDS x y z label object
SIZE 4 4 4 4 4
TYPE F F F I I
COUNT 1 1 1 1 1
WIDTH 868
HEIGHT 1
POINTS 868
VIEWPOINT 0 0 0 1 0 0 0
DATA ascii
118.0999984741211 94.9000015258789 -12.503999710083008 0 -1
111.30000305175781 85 -14.847999572753906 0 -1
119.19999694824219 80.30000305175781 -13.47700023651123 0 -1
112.5 82.30000305175781 -14.248000144958496 0 -1
119.5999984741211 79.9000015258789 -13.232999801635742 0 -1
123 80.69999694824219 -13.51099967956543 0 -1
122.80000305175781 84.5999984741211 -14.489999771118164 0 -1
121.30000305175781 78.9000015258789 -13.487000465393066 0 -1
121 95 5.22599983215332 3 -1
110.69999694824219 79 -12.822999954223633 0 -1
121.80000305175781 79.5999984741211 -13.723999977111816 0 -1
120.5999984741211 78.69999694824219 -12.869999885559082 0 -1
114.19999694824219 82.0999984741211 -13.772000312805176 0 -1
121.9000015258789 81 -14.760000228881836 0 -1
117.0999984741211 92.0999984741211 -15.562000274658203 0 -1
113.5999984741211 82.5 -13.925000190734863 0 -1
111.0999984741211 76.9000015258789 -14.873000144958496 0 -1
119.0999984741211 79.5 -13.236000061035156 0 -1
111.5999984741211 90.4000015258789 -15.463000297546387 0 -1
111.4000015258789 89.9000015258789 -15.319000244140625 0 -1
120.0999984741211 84.4000015258789 -13.88599967956543 0 -1
121.30000305175781 94.30000305175781 -15.343999862670898 0 -1
114.4000015258789 82.9000015258789 -13.892000198364258 0 -1
115 79.0999984741211 -11.77400016784668 0 -1
117.69999694824219 82.80000305175781 -13.517999649047852 0 -1
112.4000015258789 91.80000305175781 -15.616000175476074 0 -1
112.19999694824219 77.0999984741211 -14.286999702453613 0 -1
121.4000015258789 84.4000015258789 -13.604999542236328 0 -1
116.80000305175781 94 -13.897000312805176 0 -1
115 94.4000015258789 -13.989999771118164 0 -1
111.19999694824219 78.69999694824219 -14.782999992370605 0 -1
117 81.80000305175781 -12.913999557495117 0 -1
116.0999984741211 76.80000305175781 -12.178999900817871 0 -1
112.30000305175781 89.0999984741211 -15.795000076293945 0 -1
116.19999694824219 91.69999694824219 -14.956999778747559 0 -1
113.9000015258789 82.5999984741211 -14.059000015258789 0 -1
114 76.69999694824219 -14.760000228881836 0 -1
119.5999984741211 80.0999984741211 -13.232999801635742 0 -1
120.4000015258789 79.80000305175781 -14.4399995803833 0 -1
121 86.5 -13.854999542236328 0 -1
110.30000305175781 77.19999694824219 -13.718999862670898 0 -1
112.5999984741211 76.19999694824219 -14.300999641418457 0 -1
113.19999694824219 91 -15.897000312805176 0 -1
115.9000015258789 78.19999694824219 -12.574999809265137 0 -1
116.69999694824219 77.30000305175781 -12.845000267028809 0 -1
120.5 82 -13.866999626159668 0 -1
113.0999984741211 88.19999694824219 -15.305000305175781 0 -1
116.0999984741211 92.19999694824219 -14.946999549865723 0 -1
118 82.0999984741211 -13.927000045776367 0 -1
118.4000015258789 76.30000305175781 -12.378000259399414 0 -1
110.69999694824219 79.0999984741211 -12.892000198364258 0 -1
115.30000305175781 88.19999694824219 -15.869000434875488 0 -1
120.5999984741211 78.5999984741211 -13.07699966430664 0 -1
119.30000305175781 86.69999694824219 -1.9570000171661377 1 -1
117.5999984741211 80.30000305175781 -12.670000076293945 0 -1
122.0999984741211 78.0999984741211 -12.427000045776367 0 -1
112.69999694824219 77.30000305175781 -14.27400016784668 0 -1
114.5999984741211 89.4000015258789 -16.643999099731445 0 -1
113.19999694824219 75.5999984741211 -14.326000213623047 0 -1
110.9000015258789 90.4000015258789 -15.842000007629395 0 -1
113.5 86.9000015258789 -15.73799991607666 0 -1
112.19999694824219 90.4000015258789 -15.998000144958496 0 -1
111.5999984741211 77.0999984741211 -14.961999893188477 0 -1
118.19999694824219 83.5 -14.366999626159668 0 -1
111.80000305175781 86.0999984741211 -15.883999824523926 0 -1
113.80000305175781 89.80000305175781 -16.704999923706055 0 -1
110 85.5 -15.894000053405762 0 -1
112.0999984741211 79.9000015258789 -14.760000228881836 0 -1
119 86.19999694824219 -2.5460000038146973 1 -1
117 81 -12.538000106811523 0 -1
114.9000015258789 86 -15.593000411987305 0 -1
114.69999694824219 82.5999984741211 -13.944999694824219 0 -1
117.5 91.30000305175781 -15.920999526977539 0 -1
121.0999984741211 76.5999984741211 -11.904000282287598 0 -1
115.5 93 -13.975000381469727 0 -1
110.80000305175781 86 -15.706999778747559 0 -1
116.5 90.30000305175781 -15.89799976348877 0 -1
119.69999694824219 77.30000305175781 -12.395999908447266 0 -1
114.0999984741211 81.5 -13.758999824523926 0 -1
115.5999984741211 89.19999694824219 -15.937000274658203 0 -1
115.30000305175781 88.30000305175781 -15.819999694824219 0 -1
110.5999984741211 83.0999984741211 -13.531999588012695 0 -1
112.9000015258789 82.4000015258789 -14.015999794006348 0 -1
112.80000305175781 81.0999984741211 -14.805999755859375 0 -1
119.4000015258789 93.30000305175781 -16.040000915527344 0 -1
112.69999694824219 92.5999984741211 -14.98799991607666 0 -1
116.30000305175781 86.4000015258789 -14.392999649047852 0 -1
115.5 77.5999984741211 -12.435999870300293 0 -1
116.69999694824219 77.0999984741211 -13.11400032043457 0 -1
117.80000305175781 84.80000305175781 -14.152999877929688 0 -1
121.0999984741211 93.9000015258789 -15.770000457763672 0 -1
120.30000305175781 94.4000015258789 -15.050000190734863 0 -1
119.30000305175781 86.5999984741211 -7.2129998207092285 1 -1
116.0999984741211 92.4000015258789 -14.875 0 -1
116.4000015258789 84.30000305175781 -13.847000122070312 0 -1
113.69999694824219 84.4000015258789 -15.593000411987305 0 -1
115.5999984741211 89.0999984741211 -15.95199966430664 0 -1
110.19999694824219 83.0999984741211 -12.968999862670898 0 -1
120.9000015258789 83.19999694824219 -13.682999610900879 0 -1
115.0999984741211 89 -16.44700050354004 0 -1
120.5999984741211 78.80000305175781 -13.579000473022461 0 -1
119.9000015258789 86.80000305175781 -2.5840001106262207 1 -1
117.30000305175781 87 -5.285999774932861 1 -1
117.19999694824219 85.30000305175781 -14.029999732971191 0 -1
117 94.30000305175781 -12.95300006866455 0 -1
118.19999694824219 80.4000015258789 -13.043999671936035 0 -1
121.5999984741211 93.5999984741211 -15.637999534606934 0 -1
115.4000015258789 83.4000015258789 -13.576000213623047 0 -1
117.4000015258789 92.4000015258789 -15.397000312805176 0 -1
117.69999694824219 82.0999984741211 -13.609999656677246 0 -1
112.5999984741211 92.69999694824219 -14.98799991607666 0 -1
112.30000305175781 89.30000305175781 -15.795000076293945 0 -1
122.0999984741211 78.19999694824219 -12.638999938964844 0 -1
110.4000015258789 81.0999984741211 -11.704000473022461 0 -1
117.0999984741211 75.80000305175781 -12.75 0 -1
110.5999984741211 82.80000305175781 -13.57800006866455 0 -1
116.9000015258789 94 -13.949999809265137 0 -1
114.4000015258789 85 -15.892000198364258 0 -1
111.5 78.69999694824219 -15.276000022888184 0 -1
115.80000305175781 90.30000305175781 -16.545000076293945 0 -1
114.80000305175781 87.0999984741211 -15.939000129699707 0 -1
114.0999984741211 94.80000305175781 -13.812999725341797 0 -1
113.4000015258789 81.5 -14.670000076293945 0 -1
111.30000305175781 85.0999984741211 -14.762999534606934 0 -1
119.19999694824219 80.19999694824219 -14.07800006866455 0 -1
114.69999694824219 82.5 -13.859999656677246 0 -1
117.5 76 -12.638999938964844 0 -1
119.4000015258789 93.19999694824219 -16.100000381469727 0 -1
121.0999984741211 76.5 -11.961999893188477 0 -1
120.30000305175781 77 -12.015999794006348 0 -1
110.5 76.30000305175781 -14.321999549865723 0 -1
113.5999984741211 82.5999984741211 -13.897000312805176 0 -1
116.5 90.19999694824219 -16.20400047302246 0 -1
116.0999984741211 77 -12.178999900817871 0 -1
119.69999694824219 77.19999694824219 -12.70300006866455 0 -1
114.5 85.5999984741211 -15.854000091552734 0 -1
116.19999694824219 91.9000015258789 -14.9350004196167 0 -1
115.80000305175781 77 -12.234999656677246 0 -1
111.19999694824219 79 -14.744999885559082 0 -1
111.69999694824219 93.4000015258789 -15.494000434875488 0 -1
117.9000015258789 91.19999694824219 -15.784000396728516 0 -1
118.5999984741211 77.5 -12.435999870300293 0 -1
112.5 82.4000015258789 -14.241000175476074 0 -1
110.80000305175781 84 -13.907999992370605 0 -1
119.80000305175781 78.80000305175781 -12.413999557495117 0 -1
115 79 -11.869999885559082 0 -1
118.0999984741211 94.5 -14.793999671936035 0 -1
117.0999984741211 75.9000015258789 -12.670999526977539 0 -1
119.0999984741211 79.4000015258789 -12.84000015258789 0 -1
114.9000015258789 85.80000305175781 -15.630000114440918 0 -1
114 92.0999984741211 -15.708999633789062 0 -1
122.80000305175781 84.5 -14.654999732971191 0 -1
111.0999984741211 76.69999694824219 -14.873000144958496 0 -1
112 78.9000015258789 -15.345000267028809 0 -1
119.5999984741211 80 -13.269000053405762 0 -1
110.30000305175781 77.30000305175781 -13.8100004196167 0 -1
114.4000015258789 85.0999984741211 -15.95199966430664 0 -1
111.5 78.5999984741211 -15.230999946594238 0 -1
121.9000015258789 81.4000015258789 -14.618000030517578 0 -1
111.9000015258789 80.69999694824219 -14.420000076293945 0 -1
118.5999984741211 86.69999694824219 -14.51099967956543 0 -1
113.0999984741211 88.30000305175781 -15.234000205993652 0 -1
116.0999984741211 92.30000305175781 -14.92300033569336 0 -1
116.19999694824219 91.80000305175781 -14.74899959564209 0 -1
114.30000305175781 79.69999694824219 -13.47599983215332 0 -1
120.80000305175781 79.5 -13.270999908447266 0 -1
115.4000015258789 83 -13.364999771118164 0 -1
119.5 94.9000015258789 5.330999851226807 3 -1
115.9000015258789 78.0999984741211 -12.383999824523926 0 -1
115.69999694824219 90.19999694824219 -16.4060001373291 0 -1
113.5 87 -15.748000144958496 0 -1
120.0999984741211 84.30000305175781 -13.956000328063965 0 -1
113 79.80000305175781 -13.6850004196167 0 -1
110.0999984741211 86.69999694824219 -16.121999740600586 0 -1
110.5 76.5 -13.5 0 -1
118.19999694824219 83.4000015258789 -14.392000198364258 0 -1
111.19999694824219 79.0999984741211 -14.744000434875488 0 -1
113.19999694824219 90.9000015258789 -15.92199993133545 0 -1
122.0999984741211 78 -12.638999938964844 0 -1
112.69999694824219 77.19999694824219 -13.678999900817871 0 -1
114.5999984741211 89.5 -16.701000213623047 0 -1
113.80000305175781 89.69999694824219 -16.68899917602539 0 -1
121 86.0999984741211 -13.812000274658203 0 -1
120.4000015258789 93 -16.05900001525879 0 -1
117.4000015258789 92.30000305175781 -15.534000396728516 0 -1
117.0999984741211 91.19999694824219 -15.9350004196167 0 -1
119 86.80000305175781 -2.3440001010894775 1 -1
110 85.4000015258789 -15.746000289916992 0 -1
121.80000305175781 95 5.334000110626221 3 -1
110.9000015258789 89.80000305175781 -15.793999671936035 0 -1
118.30000305175781 88.19999694824219 -14.802000045776367 0 -1
117 80.9000015258789 -12.515000343322754 0 -1
120.80000305175781 79.5999984741211 -13.27400016784668 0 -1
116.5999984741211 78.4000015258789 -12.13700008392334 0 -1
115 79.19999694824219 -11.869999885559082 0 -1
121.30000305175781 79.30000305175781 -13.366999626159668 0 -1
115.0999984741211 88.69999694824219 -16.195999145507812 0 -1
116 80.30000305175781 -11.897000312805176 0 -1
114.30000305175781 79.80000305175781 -13.470000267028809 0 -1
115.80000305175781 76.80000305175781 -12.234999656677246 0 -1
110.4000015258789 80.9000015258789 -11.809000015258789 0 -1
112.80000305175781 81 -14.895999908447266 0 -1
111.80000305175781 86.5 -15.928999900817871 0 -1
116.69999694824219 92.5 -14.53499984741211 0 -1
111.9000015258789 80.5999984741211 -14.456999778747559 0 -1
116.9000015258789 94.19999694824219 -13.970999717712402 0 -1
114.19999694824219 85.80000305175781 -15.923999786376953 0 -1
116.30000305175781 86.5 -14.52400016784668 0 -1
110.30000305175781 77.0999984741211 -13.626999855041504 0 -1
115.5 92.9000015258789 -13.861000061035156 0 -1
111.4000015258789 90.30000305175781 -15.41100025177002 0 -1
110.80000305175781 78.9000015258789 -12.557999610900879 0 -1
111.19999694824219 84.0999984741211 -13.906999588012695 0 -1
121.30000305175781 94.69999694824219 -15.017999649047852 0 -1
113 79.69999694824219 -14.758999824523926 0 -1
117.30000305175781 86.9000015258789 -5.289999961853027 1 -1
117.19999694824219 85.4000015258789 -13.989999771118164 0 -1
112.0999984741211 80.30000305175781 -14.817999839782715 0 -1
116.0999984741211 92.5 -14.961000442504883 0 -1
116.4000015258789 84.19999694824219 -13.802000045776367 0 -1
112 79.30000305175781 -14.871999740600586 0 -1
121.4000015258789 84 -14.949999809265137 0 -1
112.69999694824219 92.5 -14.996999740600586 0 -1
110.19999694824219 83 -12.991999626159668 0 -1
115.69999694824219 90.5 -16.582000732421875 0 -1
110.5999984741211 81.69999694824219 -12.17300033569336 0 -1
115.5 77.5 -12.684000015258789 0 -1
120.9000015258789 83.30000305175781 -13.62600040435791 0 -1
120.30000305175781 76.80000305175781 -11.994999885559082 0 -1
119.9000015258789 86.9000015258789 -2.305000066757202 1 -1
117.0999984741211 91.30000305175781 -15.928000450134277 0 -1
114.0999984741211 81.5999984741211 -13.817999839782715 0 -1
119.69999694824219 77.4000015258789 -13.229999542236328 0 -1
110.0999984741211 86.5999984741211 -16.086999893188477 0 -1
121.80000305175781 79.69999694824219 -13.78600025177002 0 -1
120.30000305175781 94.30000305175781 -13.206000328063965 0 -1
111 79.80000305175781 -12.914999961853027 0 -1
112.4000015258789 90.4000015258789 -15.987000465393066 0 -1
116.80000305175781 93.4000015258789 -13.718000411987305 0 -1
113.5999984741211 82.19999694824219 -13.595000267028809 0 -1
110.5999984741211 82.69999694824219 -13.39900016784668 0 -1
117 94.4000015258789 -12.956999778747559 0 -1
111.5 78.80000305175781 -15.20199966430664 0 -1
111.5999984741211 90.5 -15.467000007629395 0 -1
111.19999694824219 84.19999694824219 -13.970000267028809 0 -1
112.9000015258789 82.30000305175781 -14.081000328063965 0 -1
114 76.5999984741211 -14.70199966430664 0 -1
118 82.19999694824219 -13.88599967956543 0 -1
115.9000015258789 78.30000305175781 -12.562999725341797 0 -1
120.5 82.0999984741211 -13.92300033569336 0 -1
115.0999984741211 88.5999984741211 -16.233999252319336 0 -1
115 94.5 -13.949999809265137 0 -1
114.5 85.69999694824219 -15.696999549865723 0 -1
113.69999694824219 84.30000305175781 -15.513999938964844 0 -1
118.4000015258789 76.19999694824219 -12.38700008392334 0 -1
113.19999694824219 91.0999984741211 -15.854000091552734 0 -1
122.80000305175781 84.9000015258789 -14.555000305175781 0 -1
116.69999694824219 92.30000305175781 -15.670999526977539 0 -1
112.19999694824219 90.30000305175781 -15.939000129699707 0 -1
117.5 75.80000305175781 -12.67300033569336 0 -1
114.19999694824219 86 -15.923999786376953 0 -1
113.0999984741211 88.0999984741211 -15.515999794006348 0 -1
116.19999694824219 92 -14.944999694824219 0 -1
111.5999984741211 90.5999984741211 -15.463000297546387 0 -1
119.4000015258789 94.19999694824219 -13.793999671936035 0 -1
113 95 -12.904999732971191 0 -1
120.4000015258789 79.69999694824219 -13.01200008392334 0 -1
111 79.69999694824219 -12.961999893188477 0 -1
113.19999694824219 75.69999694824219 -14.253000259399414 0 -1
118.19999694824219 80.30000305175781 -12.70300006866455 0 -1
115.30000305175781 88.4000015258789 -16.05699920654297 0 -1
119.19999694824219 80.5999984741211 -13.626999855041504 0 -1
112.69999694824219 77.0999984741211 -13.727999687194824 0 -1
114.69999694824219 82.9000015258789 -13.786999702453613 0 -1
120.4000015258789 92.30000305175781 -16.07200050354004 0 -1
111.0999984741211 88 -15.972000122070312 0 -1
121.80000305175781 79.80000305175781 -13.723999977111816 0 -1
111.19999694824219 78.9000015258789 -14.744999885559082 0 -1
110.80000305175781 84.0999984741211 -13.847999572753906 0 -1
115.69999694824219 90.5999984741211 -16.572999954223633 0 -1
115.19999694824219 85.30000305175781 -14.781999588012695 0 -1
112.5999984741211 92.80000305175781 -14.864999771118164 0 -1
119.0999984741211 79.30000305175781 -12.486000061035156 0 -1
121.5999984741211 93.4000015258789 -15.637999534606934 0 -1
111 84.9000015258789 -14.597000122070312 0 -1
121.30000305175781 94.5 -15.343999862670898 0 -1
111.0999984741211 76.5999984741211 -14.802000045776367 0 -1
112.9000015258789 82.19999694824219 -14.125 0 -1
115.5999984741211 89.5 -15.993000030517578 0 -1
118 82.30000305175781 -13.927000045776367 0 -1
118.0999984741211 94.5999984741211 -14.718999862670898 0 -1
117 81.0999984741211 -12.588000297546387 0 -1
119.30000305175781 86.5 7.497000217437744 2 -1
111.5999984741211 77.19999694824219 -14.994999885559082 0 -1
113.4000015258789 81.5999984741211 -14.472000122070312 0 -1
121.9000015258789 81.30000305175781 -14.446999549865723 0 -1
117.5 75.9000015258789 -12.6899995803833 0 -1
123 80.5999984741211 -13.628999710083008 0 -1
119.4000015258789 94.0999984741211 -13.928999900817871 0 -1
119.5999984741211 80.69999694824219 -13.883000373840332 0 -1
113.30000305175781 78 -14.585000038146973 0 -1
117.80000305175781 84.69999694824219 -14.251999855041504 0 -1
118.19999694824219 83.30000305175781 -14.45300006866455 0 -1
110.9000015258789 89.69999694824219 -15.767999649047852 0 -1
112.4000015258789 90.5999984741211 -15.925999641418457 0 -1
113.80000305175781 89.5999984741211 -16.607999801635742 0 -1
115.30000305175781 88.5 -16.04199981689453 0 -1
120.5999984741211 77.9000015258789 -13.49899959564209 0 -1
116.69999694824219 77 -12.979000091552734 0 -1
121.0999984741211 93.80000305175781 -15.79699993133545 0 -1
118.4000015258789 76.0999984741211 -12.378000259399414 0 -1
112.30000305175781 89.4000015258789 -15.807999610900879 0 -1
114.5999984741211 89.5999984741211 -16.839000701904297 0 -1
113.4000015258789 81.19999694824219 -14.602999687194824 0 -1
113 94.4000015258789 -13.9399995803833 0 -1
116.30000305175781 86.0999984741211 -14.472000122070312 0 -1
110.4000015258789 81 -11.687000274658203 0 -1
121.4000015258789 84.19999694824219 -13.604999542236328 0 -1
120 87.0999984741211 -2.559000015258789 1 -1
110.5999984741211 81.9000015258789 -13.458000183105469 0 -1
121 86.19999694824219 -14.055999755859375 0 -1
116.5 90.5999984741211 -15.98799991607666 0 -1
116.9000015258789 94.0999984741211 -13.895999908447266 0 -1
115.80000305175781 90.19999694824219 -16.45400047302246 0 -1
119 86.9000015258789 -2.364000082015991 1 -1
112.19999694824219 77 -14.265999794006348 0 -1
119.9000015258789 95 4.330999851226807 3 -1
110.80000305175781 79 -12.550999641418457 0 -1
111 84.80000305175781 -14.482000350952148 0 -1
117.69999694824219 82 -14.505999565124512 0 -1
120.0999984741211 84.69999694824219 -13.991000175476074 0 -1
114.0999984741211 94.9000015258789 -13.482999801635742 0 -1
112.69999694824219 92.9000015258789 -14.845999717712402 0 -1
116.80000305175781 93.19999694824219 -13.993000030517578 0 -1
110.5999984741211 82.9000015258789 -13.534000396728516 0 -1
111.80000305175781 86.4000015258789 -15.946999549865723 0 -1
110 85.30000305175781 -15.317999839782715 0 -1
120.4000015258789 79 -12.9350004196167 0 -1
111.19999694824219 84 -13.60200023651123 0 -1
115.80000305175781 76.9000015258789 -12.383000373840332 0 -1
113.9000015258789 82.5 -14.055000305175781 0 -1
120.5 82.80000305175781 -13.906000137329102 0 -1
119.30000305175781 86.4000015258789 -2.684000015258789 1 -1
117.5999984741211 80.19999694824219 -12.720999717712402 0 -1
114.19999694824219 85.9000015258789 -15.944000244140625 0 -1
111.5999984741211 77.30000305175781 -14.961999893188477 0 -1
121.0999984741211 76.4000015258789 -12.524999618530273 0 -1
115.5 92.80000305175781 -13.989999771118164 0 -1
115 94.69999694824219 -13.802000045776367 0 -1
119.9000015258789 87 -14.642000198364258 0 -1
116.5 90.5 -15.89799976348877 0 -1
114.9000015258789 85.69999694824219 -15.612000465393066 0 -1
117.30000305175781 86.80000305175781 -5.285999774932861 1 -1
117.19999694824219 85.5 -13.887999534606934 0 -1
116.5999984741211 78.80000305175781 -12.293000221252441 0 -1
113.5 86.0999984741211 -15.88599967956543 0 -1
112.80000305175781 80.9000015258789 -14.920999526977539 0 -1
114.30000305175781 79.4000015258789 -12.71500015258789 0 -1
119.80000305175781 77.9000015258789 -12.295000076293945 0 -1
115.69999694824219 90.4000015258789 -16.55900001525879 0 -1
115.19999694824219 85.5 -15.605999946594238 0 -1
115.5 77.4000015258789 -14.302000045776367 0 -1
117.0999984741211 76 -12.75 0 -1
119.80000305175781 78 -12.37600040435791 0 -1
114.4000015258789 85.19999694824219 -16.086999893188477 0 -1
114 92 -15.73900032043457 0 -1
114.5 85.30000305175781 -15.854999542236328 0 -1
120.5999984741211 93.30000305175781 -16.076000213623047 0 -1
121.0999984741211 93.69999694824219 -15.770000457763672 0 -1
112.4000015258789 90.5 -15.996000289916992 0 -1
117.19999694824219 85 -13.954999923706055 0 -1
116.4000015258789 84.0999984741211 -13.711000442504883 0 -1
113.5999984741211 82.30000305175781 -13.78499984741211 0 -1
120.9000015258789 83.4000015258789 -13.682999610900879 0 -1
115.0999984741211 88.80000305175781 -16.378999710083008 0 -1
117.5 76.19999694824219 -12.638999938964844 0 -1
113.30000305175781 78.69999694824219 -14.656000137329102 0 -1
123 80.4000015258789 -13.628999710083008 0 -1
113.80000305175781 90.0999984741211 -16.875 0 -1
117.80000305175781 84.5 -13.890000343322754 0 -1
112.5 82 -14.369000434875488 0 -1
117.5 91.19999694824219 -15.913000106811523 0 -1
115.80000305175781 77.69999694824219 -12.515999794006348 0 -1
122.80000305175781 84.80000305175781 -14.279999732971191 0 -1
112.80000305175781 81.9000015258789 -14.288999557495117 0 -1
113.69999694824219 84.19999694824219 -15.593000411987305 0 -1
120.30000305175781 77.69999694824219 -11.609999656677246 0 -1
115.4000015258789 83.0999984741211 -13.315999984741211 0 -1
110.80000305175781 84.19999694824219 -13.907999992370605 0 -1
120.80000305175781 79.19999694824219 -13.121000289916992 0 -1
118.19999694824219 80.19999694824219 -13.043999671936035 0 -1
115.19999694824219 85.4000015258789 -14.723999977111816 0 -1
114.80000305175781 87.5 -16.365999221801758 0 -1
116 79.9000015258789 -12.076000213623047 0 -1
117.4000015258789 92.19999694824219 -15.557999610900879 0 -1
116.19999694824219 92.0999984741211 -14.942999839782715 0 -1
112.19999694824219 76.80000305175781 -14.267000198364258 0 -1
120.5999984741211 93.19999694824219 -15.96500015258789 0 -1
116.9000015258789 93.80000305175781 -13.779000282287598 0 -1
114.4000015258789 85.30000305175781 -15.956999778747559 0 -1
110.19999694824219 84.9000015258789 -14.510000228881836 0 -1
116.69999694824219 76.80000305175781 -12.986000061035156 0 -1
110.5 76.5999984741211 -13.5649995803833 0 -1
114 91.80000305175781 -15.831999778747559 0 -1
118.80000305175781 88.80000305175781 -16.659000396728516 0 -1
115.9000015258789 78.4000015258789 -12.574999809265137 0 -1
110.4000015258789 80.80000305175781 -11.861000061035156 0 -1
118.0999984741211 94.69999694824219 -14.793999671936035 0 -1
112.5999984741211 92.9000015258789 -14.598999977111816 0 -1
112.5 82.0999984741211 -14.368000030517578 0 -1
119.19999694824219 80.5 -13.699000358581543 0 -1
119.0999984741211 79.19999694824219 -12.84000015258789 0 -1
121.30000305175781 79.19999694824219 -13.336000442504883 0 -1
113.30000305175781 78.5999984741211 -14.619999885559082 0 -1
115 79.30000305175781 -11.77400016784668 0 -1
111.4000015258789 90.19999694824219 -15.366999626159668 0 -1
123 80.5 -13.520000457763672 0 -1
113.19999694824219 90.19999694824219 -16.476999282836914 0 -1
116.0999984741211 77.0999984741211 -12.348999977111816 0 -1
120.30000305175781 77.80000305175781 -12.451000213623047 0 -1
118.19999694824219 83.19999694824219 -14.347999572753906 0 -1
113.0999984741211 89 -15.916000366210938 0 -1
116.69999694824219 92.4000015258789 -15.593999862670898 0 -1
111.5 78.4000015258789 -15.230999946594238 0 -1
121.9000015258789 81.19999694824219 -14.618000030517578 0 -1
112 79.19999694824219 -14.918999671936035 0 -1
111.9000015258789 80.5 -14.420000076293945 0 -1
120.4000015258789 92.4000015258789 -15.956999778747559 0 -1
117.0999984741211 91.4000015258789 -15.668999671936035 0 -1
114.0999984741211 81.69999694824219 -13.758999824523926 0 -1
110.9000015258789 89.5999984741211 -15.793999671936035 0 -1
118.5999984741211 77.4000015258789 -12.541000366210938 0 -1
117.9000015258789 91.30000305175781 -15.784000396728516 0 -1
113 79.0999984741211 -14.557999610900879 0 -1
117.5999984741211 80 -12.722000122070312 0 -1
116.30000305175781 86.19999694824219 -14.515000343322754 0 -1
121.4000015258789 84.0999984741211 -13.732999801635742 0 -1
110.5999984741211 81.80000305175781 -12.234000205993652 0 -1
112.19999694824219 76.9000015258789 -14.286999702453613 0 -1
111.5999984741211 76.80000305175781 -14.769000053405762 0 -1
118 82.4000015258789 -13.803999900817871 0 -1
119.19999694824219 86.4000015258789 7.497000217437744 2 -1
114.5999984741211 89.69999694824219 -16.84600067138672 0 -1
111.0999984741211 87.9000015258789 -15.970000267028809 0 -1
120.5 82.69999694824219 -13.894000053405762 0 -1
112.4000015258789 90.19999694824219 -15.98900032043457 0 -1
117 94.5 -12.965999603271484 0 -1
114.19999694824219 85.5999984741211 -15.984000205993652 0 -1
119 87 -2.374000072479248 1 -1
119.5999984741211 80.80000305175781 -13.800999641418457 0 -1
110.80000305175781 79.0999984741211 -12.697999954223633 0 -1
110.30000305175781 76.5 -13.402999877929688 0 -1
120.0999984741211 84.5999984741211 -13.965999603271484 0 -1
117.30000305175781 86.69999694824219 -5.2769999504089355 1 -1
112.69999694824219 92.80000305175781 -14.788999557495117 0 -1
116.80000305175781 93.30000305175781 -13.847000122070312 0 -1
112.69999694824219 77.5 -14.390000343322754 0 -1
122.0999984741211 77.9000015258789 -12.491999626159668 0 -1
110 82.5999984741211 -12.973999977111816 0 -1
116.5999984741211 78.5999984741211 -12.13700008392334 0 -1
120.4000015258789 79.0999984741211 -12.927000045776367 0 -1
115 94.5999984741211 -13.989999771118164 0 -1
116 80.0999984741211 -12.076000213623047 0 -1
117.0999984741211 91.5 -15.58899974822998 0 -1
114 76.5 -14.585000038146973 0 -1
113.5 86.19999694824219 -15.734999656677246 0 -1
111 79.5999984741211 -12.739999771118164 0 -1
116.0999984741211 77.30000305175781 -12.336999893188477 0 -1
113 79 -14.553999900817871 0 -1
111.9000015258789 80.4000015258789 -14.456999778747559 0 -1
122.4000015258789 81 -13.654999732971191 0 -1
115.5 92.69999694824219 -13.861000061035156 0 -1
111.4000015258789 90.5 -15.54800033569336 0 -1
110.5999984741211 82.5 -13.517999649047852 0 -1
116.69999694824219 92.19999694824219 -15.593999862670898 0 -1
120.4000015258789 92.19999694824219 -16.128999710083008 0 -1
111.19999694824219 84.4000015258789 -14.095000267028809 0 -1
117.5999984741211 80.0999984741211 -12.986000061035156 0 -1
116.4000015258789 84 -13.664999961853027 0 -1
113.9000015258789 82.9000015258789 -13.920000076293945 0 -1
120.30000305175781 95 5.089000225067139 3 -1
111 84.69999694824219 -14.39900016784668 0 -1
115.5 77.30000305175781 -13.904000282287598 0 -1
114.80000305175781 87.30000305175781 -16.222999572753906 0 -1
114.69999694824219 82.80000305175781 -13.944999694824219 0 -1
111.5999984741211 76.9000015258789 -14.838000297546387 0 -1
118.5999984741211 77.69999694824219 -12.574999809265137 0 -1
110.9000015258789 90.0999984741211 -15.845000267028809 0 -1
120.5999984741211 93.4000015258789 -15.958999633789062 0 -1
119.9000015258789 86.5999984741211 -2.687999963760376 1 -1
117.19999694824219 85.0999984741211 -13.909000396728516 0 -1
119.30000305175781 86.30000305175781 7.497000217437744 2 -1
115.80000305175781 91.0999984741211 -15.91100025177002 0 -1
111.80000305175781 86.30000305175781 -15.954000473022461 0 -1
113.69999694824219 84.0999984741211 -15.513999938964844 0 -1
113.80000305175781 90 -16.79800033569336 0 -1
111.5999984741211 90.19999694824219 -15.512999534606934 0 -1
122.5999984741211 79.19999694824219 -13.144000053405762 0 -1
115.5999984741211 89.4000015258789 -16.03499984741211 0 -1
114.5 85.4000015258789 -15.855999946594238 0 -1
112.80000305175781 81.80000305175781 -14.322999954223633 0 -1
113.19999694824219 75 -13.668999671936035 0 -1
110.30000305175781 76.30000305175781 -14.204000473022461 0 -1
117.80000305175781 84.5999984741211 -13.861000061035156 0 -1
117.9000015258789 91.5 -15.70300006866455 0 -1
117 81.19999694824219 -12.633999824523926 0 -1
116.9000015258789 93.69999694824219 -13.812000274658203 0 -1
113.30000305175781 78.80000305175781 -14.642999649047852 0 -1
116.5999984741211 78.69999694824219 -12.211000442504883 0 -1
118.19999694824219 80.0999984741211 -12.965999603271484 0 -1
115.80000305175781 77.80000305175781 -12.472000122070312 0 -1
122.30000305175781 84.80000305175781 -14.472000122070312 0 -1
115.0999984741211 88.4000015258789 -16.367000579833984 0 -1
120 87.19999694824219 -2.559000015258789 1 -1
114.80000305175781 87.4000015258789 -16.226999282836914 0 -1
112.0999984741211 80.19999694824219 -14.727999687194824 0 -1
119.69999694824219 77.5 -12.437000274658203 0 -1
115.5999984741211 89.80000305175781 -16.29199981689453 0 -1
120.9000015258789 82.5 -13.906999588012695 0 -1
115 94.80000305175781 -13.807000160217285 0 -1
118.4000015258789 76 -12.939000129699707 0 -1
110.80000305175781 84.30000305175781 -13.991999626159668 0 -1
116.0999984741211 77.19999694824219 -12.812000274658203 0 -1
112.30000305175781 89.5 -15.836000442504883 0 -1
112.9000015258789 82.5999984741211 -13.998000144958496 0 -1
114 76.30000305175781 -13.960000038146973 0 -1
113 94.30000305175781 -13.968000411987305 0 -1
116.69999694824219 76.9000015258789 -13.347000122070312 0 -1
114.0999984741211 81.9000015258789 -13.798999786376953 0 -1
113.4000015258789 81.30000305175781 -14.574999809265137 0 -1
122.0999984741211 79.80000305175781 -13.767000198364258 0 -1
116.0999984741211 92.5999984741211 -14.979999542236328 0 -1
115.30000305175781 88.5999984741211 -16.027000427246094 0 -1
115.69999694824219 75.4000015258789 -13.411999702453613 0 -1
114.69999694824219 82.69999694824219 -13.930999755859375 0 -1
119.19999694824219 80.4000015258789 -13.626999855041504 0 -1
118.5999984741211 77.80000305175781 -12.454999923706055 0 -1
117.4000015258789 92.5999984741211 -14.902999877929688 0 -1
114 91.9000015258789 -15.857000350952148 0 -1
121.9000015258789 80.5999984741211 -14.508000373840332 0 -1
111.5999984741211 90.30000305175781 -15.467000007629395 0 -1
118.80000305175781 88.9000015258789 -16.698999404907227 0 -1
119.4000015258789 93.9000015258789 -14.1899995803833 0 -1
115.69999694824219 90.80000305175781 -15.972000122070312 0 -1
120.5 82.9000015258789 -13.894000053405762 0 -1
111.0999984741211 87.69999694824219 -15.878999710083008 0 -1
123 81.30000305175781 -13.574000358581543 0 -1
112.5999984741211 93 -14.946000099182129 0 -1
112.9000015258789 82.5 -14.190999984741211 0 -1
117 94.69999694824219 -12.972999572753906 0 -1
110.5999984741211 81.5 -12.447999954223633 0 -1
115.19999694824219 85.5999984741211 -15.616000175476074 0 -1
111 79.5 -12.769000053405762 0 -1
112.19999694824219 90.19999694824219 -15.98900032043457 0 -1
114.0999984741211 95 -12.97599983215332 0 -1
110.4000015258789 80.69999694824219 -11.911999702453613 0 -1
117.9000015258789 91.4000015258789 -15.604000091552734 0 -1
121.80000305175781 77.9000015258789 -12.369000434875488 0 -1
117.69999694824219 82.4000015258789 -13.838000297546387 0 -1
116.5999984741211 78 -12.418999671936035 0 -1
116.19999694824219 91.19999694824219 -15.138999938964844 0 -1
114.30000305175781 79.5 -13.47599983215332 0 -1
116.80000305175781 93.5999984741211 -13.595999717712402 0 -1
120.4000015258789 78.9000015258789 -12.843000411987305 0 -1
118.0999984741211 94.30000305175781 -15.288999557495117 0 -1
113.5999984741211 82.4000015258789 -13.696999549865723 0 -1
116.5 90.4000015258789 -15.855999946594238 0 -1
114.9000015258789 85.5999984741211 -15.576000213623047 0 -1
117.0999984741211 76.0999984741211 -12.670999526977539 0 -1
119.5999984741211 80.5 -13.46500015258789 0 -1
120.5999984741211 78 -12.604999542236328 0 -1
120.0999984741211 84.5 -13.991999626159668 0 -1
117.5 91.5999984741211 -15.593999862670898 0 -1
115.80000305175781 90.9000015258789 -15.932000160217285 0 -1
112.19999694824219 77.69999694824219 -14.065999984741211 0 -1
116.69999694824219 77.69999694824219 -12.0600004196167 0 -1
122.80000305175781 85.19999694824219 -13.670999526977539 0 -1
121.5999984741211 77.5999984741211 -12.055999755859375 0 -1
115.30000305175781 88.69999694824219 -16.18000030517578 0 -1
119.80000305175781 78.0999984741211 -12.387999534606934 0 -1
116.30000305175781 86.80000305175781 -14.560999870300293 0 -1
112 79.5999984741211 -14.857000350952148 0 -1
117.4000015258789 92.5 -15.366999626159668 0 -1
117.5999984741211 79.9000015258789 -12.986000061035156 0 -1
113.9000015258789 82.69999694824219 -13.991999626159668 0 -1
114.5999984741211 89.80000305175781 -16.466999053955078 0 -1
113.4000015258789 81.4000015258789 -14.690999984741211 0 -1
117.80000305175781 84.4000015258789 -13.946999549865723 0 -1
111.0999984741211 87.80000305175781 -15.996000289916992 0 -1
122.9000015258789 77.69999694824219 -12.543999671936035 0 -1
114.19999694824219 85.69999694824219 -15.944000244140625 0 -1
115.80000305175781 77.5999984741211 -12.4350004196167 0 -1
118.19999694824219 83.0999984741211 -14.166000366210938 0 -1
117.69999694824219 82.19999694824219 -13.838000297546387 0 -1
119.0999984741211 79.0999984741211 -12.605999946594238 0 -1
111.0999984741211 76.5 -14.854000091552734 0 -1
116 80 -11.88599967956543 0 -1
117.30000305175781 86.5999984741211 -14.206999778747559 0 -1
113.5 86.30000305175781 -15.708000183105469 0 -1
111.19999694824219 79.30000305175781 -14.520000457763672 0 -1
112.69999694824219 77.4000015258789 -14.312999725341797 0 -1
123 81.4000015258789 -13.550999641418457 0 -1
112.30000305175781 89.69999694824219 -15.972999572753906 0 -1
117.0999984741211 76.19999694824219 -13.161999702453613 0 -1
114.4000015258789 85.4000015258789 -15.934000015258789 0 -1
118.30000305175781 88.5 -15.151000022888184 0 -1
120.80000305175781 79.30000305175781 -13.251999855041504 0 -1
117 81.4000015258789 -12.805999755859375 0 -1
116.9000015258789 93.9000015258789 -13.720999717712402 0 -1
115.5 92.5999984741211 -13.989999771118164 0 -1
110 82.5 -12.972000122070312 0 -1
110.80000305175781 79.19999694824219 -12.855999946594238 0 -1
111.4000015258789 90.5999984741211 -15.550000190734863 0 -1
116.5 75.5 -13.140999794006348 0 -1
118.5999984741211 77.5999984741211 -12.407999992370605 0 -1
110.5 76.69999694824219 -13.694000244140625 0 -1
123 94.5999984741211 -12.156999588012695 0 -1
119.9000015258789 86.69999694824219 -2.635999917984009 1 -1
116.0999984741211 77.4000015258789 -12.869000434875488 0 -1
112.5 82.69999694824219 -14.234999656677246 0 -1
112.19999694824219 77.80000305175781 -14.095999717712402 0 -1
113.9000015258789 82.80000305175781 -13.944000244140625 0 -1
113.80000305175781 89.9000015258789 -16.76099967956543 0 -1
115.9000015258789 78.5 -12.715999603271484 0 -1
122.4000015258789 80.9000015258789 -13.824999809265137 0 -1
115.5 77.19999694824219 -12.104999542236328 0 -1
117.5 91.4000015258789 -15.913000106811523 0 -1
119.80000305175781 78.19999694824219 -12.37600040435791 0 -1
114.5 85.5 -15.854999542236328 0 -1
110.9000015258789 90 -15.854000091552734 0 -1
122.5999984741211 94.5 -12.37600040435791 0 -1
113.69999694824219 84 -15.435999870300293 0 -1
122.5999984741211 79.30000305175781 -13.234000205993652 0 -1
117.9000015258789 91.5999984741211 -15.95199966430664 0 -1
112 79.5 -14.843000411987305 0 -1
112.69999694824219 92.69999694824219 -14.864999771118164 0 -1
118.19999694824219 80 -12.961999893188477 0 -1
120 94.9000015258789 4.330999851226807 3 -1
115 79.4000015258789 -12.104999542236328 0 -1
115.4000015258789 83.80000305175781 -13.845000267028809 0 -1
113.19999694824219 90.30000305175781 -16.409000396728516 0 -1
114.9000015258789 85.4000015258789 -15.788000106811523 0 -1
114 91.69999694824219 -15.92300033569336 0 -1
114.30000305175781 79.5999984741211 -13.472999572753906 0 -1
111.0999984741211 76.30000305175781 -14.506999969482422 0 -1
116.69999694824219 93.0999984741211 -13.907999992370605 0 -1
113.0999984741211 88.9000015258789 -15.972999572753906 0 -1
119 86.5999984741211 -2.380000114440918 1 -1
111.80000305175781 86.69999694824219 -15.928999900817871 0 -1
118.5999984741211 87 -14.968999862670898 0 -1
121.5999984741211 77.80000305175781 -12.177000045776367 0 -1
120 87.30000305175781 -2.6659998893737793 1 -1
114.4000015258789 85.5 -15.92199993133545 0 -1
112.80000305175781 81.69999694824219 -14.515000343322754 0 -1
111.9000015258789 80.30000305175781 -14.602999687194824 0 -1
117.19999694824219 85.19999694824219 -13.989999771118164 0 -1
113.19999694824219 74.9000015258789 -13.621999740600586 0 -1
120.30000305175781 77.5 -11.609999656677246 0 -1
118.30000305175781 88.4000015258789 -14.949000358581543 0 -1
116.0999984741211 92.69999694824219 -14.994000434875488 0 -1
110.5 75.9000015258789 -14.428999900817871 0 -1
117.5 91.5 -15.66100025177002 0 -1
119.69999694824219 77.5999984741211 -12.390000343322754 0 -1
113.30000305175781 78.4000015258789 -14.61299991607666 0 -1
116.4000015258789 84.9000015258789 -14.104999542236328 0 -1
114.0999984741211 81.80000305175781 -13.852999687194824 0 -1
118 82.5 -13.862000465393066 0 -1
118.4000015258789 75.9000015258789 -12.916999816894531 0 -1
120.9000015258789 82.5999984741211 -13.89900016784668 0 -1
123 94.69999694824219 -12.258999824523926 0 -1
120.5999984741211 78.19999694824219 -12.604999542236328 0 -1
112.0999984741211 80.5999984741211 -14.76099967956543 0 -1
113.5999984741211 82 -13.62399959564209 0 -1
123 81.19999694824219 -13.550999641418457 0 -1
122.80000305175781 85.0999984741211 -14.994000434875488 0 -1
117 94.5999984741211 -12.95199966430664 0 -1
110.30000305175781 76.4000015258789 -13.34000015258789 0 -1
120.4000015258789 92.5999984741211 -16.07200050354004 0 -1
112.5 82.80000305175781 -14.230999946594238 0 -1
110.80000305175781 84.4000015258789 -13.979000091552734 0 -1
117.0999984741211 91.5999984741211 -15.53600025177002 0 -1
121.9000015258789 80.5 -13.689000129699707 0 -1
114 76.4000015258789 -13.923999786376953 0 -1
111.0999984741211 87.5999984741211 -15.904999732971191 0 -1
112.5999984741211 93.0999984741211 -14.887999534606934 0 -1
113 78.9000015258789 -14.529000282287598 0 -1
114.80000305175781 87.69999694824219 -16.23699951171875 0 -1
110.5999984741211 81.5999984741211 -12.527000427246094 0 -1
111.4000015258789 90.4000015258789 -15.543000221252441 0 -1
115.19999694824219 85.69999694824219 -15.5649995803833 0 -1
115.4000015258789 83.9000015258789 -14.041000366210938 0 -1
111.5999984741211 77 -14.866999626159668 0 -1
119.19999694824219 80.80000305175781 -13.935999870300293 0 -1
119.5999984741211 80.4000015258789 -13.501999855041504 0 -1
115 79.5999984741211 -12.388999938964844 0 -1
118 82.5999984741211 -13.890999794006348 0 -1
116 80.69999694824219 -11.857000350952148 0 -1
116.69999694824219 77.80000305175781 -12.666000366210938 0 -1
112.19999694824219 77.5999984741211 -14.03499984741211 0 -1
115.9000015258789 78.69999694824219 -12.925999641418457 0 -1
114.5 85 -15.95199966430664 0 -1
122.4000015258789 81.0999984741211 -13.798999786376953 0 -1
120.5 82.5 -13.904000282287598 0 -1
111 84.5999984741211 -14.178000450134277 0 -1
110.5999984741211 82.5999984741211 -13.567999839782715 0 -1
112.9000015258789 82.9000015258789 -14.227999687194824 0 -1
111.9000015258789 80.19999694824219 -14.619999885559082 0 -1
110.19999694824219 84.80000305175781 -14.279999732971191 0 -1
116.30000305175781 86.9000015258789 -14.871999740600586 0 -1
113.9000015258789 82.0999984741211 -13.984999656677246 0 -1
110.30000305175781 76.69999694824219 -13.590999603271484 0 -1
118.4000015258789 75.80000305175781 -12.939000129699707 0 -1
120.5999984741211 78.0999984741211 -12.76099967956543 0 -1
112.69999694824219 77.80000305175781 -14.472000122070312 0 -1
113 79.30000305175781 -14.48900032043457 0 -1
117.5999984741211 79.80000305175781 -13.114999771118164 0 -1
115.80000305175781 91 -15.984999656677246 0 -1
116.80000305175781 93.5 -13.786999702453613 0 -1
114.0999984741211 81 -13.944000244140625 0 -1
118.0999984741211 94.4000015258789 -15.26200008392334 0 -1
121.5999984741211 77.69999694824219 -13.170999526977539 0 -1
114.80000305175781 87.80000305175781 -16.23200035095215 0 -1
117.19999694824219 82.69999694824219 -12.92199993133545 0 -1
117.4000015258789 76.5 -12.987000465393066 0 -1
118.19999694824219 83 -13.99899959564209 0 -1
119.30000305175781 86.19999694824219 -2.684000015258789 1 -1
117.69999694824219 82.30000305175781 -13.352999687194824 0 -1
114.5999984741211 89.9000015258789 -16.486000061035156 0 -1
113 94.69999694824219 -12.852999687194824 0 -1
120.0999984741211 84.9000015258789 -14.053000450134277 0 -1
111.19999694824219 79.19999694824219 -14.541000366210938 0 -1
111.5 78.5 -15.246000289916992 0 -1
118.5999984741211 86.80000305175781 -14.895000457763672 0 -1
122.30000305175781 84.9000015258789 -14.739999771118164 0 -1
111.0999984741211 76.4000015258789 -14.526000022888184 0 -1
113.19999694824219 75.0999984741211 -13.621999740600586 0 -1
113.4000015258789 80.9000015258789 -14.659000396728516 0 -1
122.5999984741211 94.69999694824219 4.043000221252441 3 -1
117 81.30000305175781 -12.618000030517578 0 -1
112.30000305175781 89.5999984741211 -15.927000045776367 0 -1
112.19999694824219 91.0999984741211 -15.616999626159668 0 -1
114 76.19999694824219 -13.923999786376953 0 -1
111 84.5 -14.119000434875488 0 -1
115 94.9000015258789 -13.892000198364258 0 -1
123 94.5 -12.258999824523926 0 -1
110.9000015258789 89.9000015258789 -15.767999649047852 0 -1
119.30000305175781 86.0999984741211 -2.7060000896453857 1 -1
114.69999694824219 82.0999984741211 -13.8100004196167 0 -1
112.0999984741211 80.4000015258789 -14.836999893188477 0 -1
111.5999984741211 77.5999984741211 -14.97700023651123 0 -1
112.69999694824219 93.0999984741211 -14.845999717712402 0 -1
115.5 92.5 -14.27400016784668 0 -1
110.80000305175781 79.30000305175781 -12.835000038146973 0 -1
117.0999984741211 92.69999694824219 -14.855999946594238 0 -1
115.5999984741211 89.69999694824219 -16.320999145507812 0 -1
117.69999694824219 83.5999984741211 -14.072999954223633 0 -1
119.4000015258789 93.80000305175781 -14.472000122070312 0 -1
115.80000305175781 77.5 -12.541999816894531 0 -1
113 94.5999984741211 -13.847999572753906 0 -1
121.5999984741211 77.4000015258789 -12.055999755859375 0 -1
120.4000015258789 79.30000305175781 -12.897000312805176 0 -1
115.5 77.0999984741211 -13.875 0 -1
112.4000015258789 90.30000305175781 -15.996000289916992 0 -1
119.9000015258789 87.30000305175781 -2.7090001106262207 1 -1
116.5 90.80000305175781 -15.781000137329102 0 -1
113.80000305175781 89.30000305175781 -16.381000518798828 0 -1
119.69999694824219 77.80000305175781 -12.295000076293945 0 -1
115.30000305175781 88.80000305175781 -16.20599937438965 0 -1
120 87.4000015258789 -2.750999927520752 1 -1
113.5 86.4000015258789 -15.847999572753906 0 -1
111 79.4000015258789 -12.579000473022461 0 -1
114.9000015258789 85.5 -15.815999984741211 0 -1
119.5999984741211 80.5999984741211 -13.538000106811523 0 -1
122.5999984741211 94.5999984741211 -12.565999984741211 0 -1
110.4000015258789 80.5999984741211 -11.861000061035156 0 -1
111.80000305175781 86.5999984741211 -15.9350004196167 0 -1
111.5999984741211 90.9000015258789 -15.32800006866455 0 -1
118.5999984741211 86.9000015258789 -14.944999694824219 0 -1
117 80.5 -12.654999732971191 0 -1
112.80000305175781 81.5999984741211 -14.468000411987305 0 -1
113.4000015258789 81 -14.602999687194824 0 -1
111.0999984741211 76.19999694824219 -14.526000022888184 0 -1
111.5 78.19999694824219 -15.309000015258789 0 -1
115.80000305175781 90.80000305175781 -16.594999313354492 0 -1
112.0999984741211 80.5 -14.817999839782715 0 -1
117.5 90.80000305175781 -16.107999801635742 0 -1
117.4000015258789 93.9000015258789 -13.958000183105469 0 -1
116.5 90.69999694824219 -15.850000381469727 0 -1
119.69999694824219 77.69999694824219 -12.437000274658203 0 -1
116.4000015258789 84.80000305175781 -14.1850004196167 0 -1
115.5999984741211 89.5999984741211 -16.179000854492188 0 -1
120.9000015258789 82.69999694824219 -13.916999816894531 0 -1
114.69999694824219 82 -13.791999816894531 0 -1
119.4000015258789 93.69999694824219 -14.331000328063965 0 -1
116.69999694824219 77.5999984741211 -12.666000366210938 0 -1
114.30000305175781 79.19999694824219 -12.71500015258789 0 -1
117.80000305175781 84.30000305175781 -13.975000381469727 0 -1
110.5 75.80000305175781 -14.489999771118164 0 -1
122.80000305175781 85 -14.25 0 -1
113.19999694824219 90.4000015258789 -16.415000915527344 0 -1
116.0999984741211 92.9000015258789 -13.902000427246094 0 -1
113.69999694824219 84.9000015258789 -15.890999794006348 0 -1
111.5999984741211 91 -15.3100004196167 0 -1
120.5999984741211 93.5 -15.92300033569336 0 -1
111.19999694824219 84.30000305175781 -13.970000267028809 0 -1
111 79.30000305175781 -13.652999877929688 0 -1
120.5999984741211 78.30000305175781 -12.76099967956543 0 -1
110 82.9000015258789 -12.91100025177002 0 -1
118.19999694824219 79.9000015258789 -12.74899959564209 0 -1
113.5999984741211 82.0999984741211 -13.720999717712402 0 -1
122.9000015258789 77.5999984741211 -12.73900032043457 0 -1
112.30000305175781 89.80000305175781 -15.895000457763672 0 -1
112.19999694824219 90.9000015258789 -15.616999626159668 0 -1
114.80000305175781 87.5999984741211 -16.402000427246094 0 -1
114.0999984741211 94.30000305175781 -13.96500015258789 0 -1
115.0999984741211 88.5 -16.395000457763672 0 -1
110.80000305175781 84.5 -14.196999549865723 0 -1
110.5999984741211 82.30000305175781 -13.626999855041504 0 -1
121.9000015258789 80.4000015258789 -14.395999908447266 0 -1
116.9000015258789 90.4000015258789 -15.859000205993652 0 -1
122.0999984741211 79.69999694824219 -13.883000373840332 0 -1
114.0999984741211 80.9000015258789 -13.876999855041504 0 -1
114.5 85.0999984741211 -15.845999717712402 0 -1
121 87.5999984741211 -13.810999870300293 0 -1
116.30000305175781 87 -14.824000358581543 0 -1
122.30000305175781 84.5999984741211 -14.680000305175781 0 -1
120.80000305175781 79 -13.121000289916992 0 -1
118.80000305175781 89 -16.659000396728516 0 -1
111.5 78.0999984741211 -15.211000442504883 0 -1
115.9000015258789 78.5999984741211 -12.42199993133545 0 -1
118.5999984741211 87.19999694824219 -14.968999862670898 0 -1
118.4000015258789 87 -14.51200008392334 0 -1
115.69999694824219 90.69999694824219 -15.866000175476074 0 -1
117.9000015258789 88.69999694824219 -14.859999656677246 0 -1
119.19999694824219 80.69999694824219 -13.770999908447266 0 -1
116.80000305175781 77.5 -12.84000015258789 0 -1
115.4000015258789 83.5 -13.557000160217285 0 -1
112.4000015258789 91 -15.887999534606934 0 -1
114.9000015258789 85.30000305175781 -15.815999984741211 0 -1
112.69999694824219 77.69999694824219 -14.489999771118164 0 -1
115.69999694824219 75.69999694824219 -13.29800033569336 0 -1
111.19999694824219 79.5 -13.878999710083008 0 -1
116.0999984741211 92.80000305175781 -14.968000411987305 0 -1
112 79.4000015258789 -14.918999671936035 0 -1
119.80000305175781 78.30000305175781 -12.376999855041504 0 -1
110.5 76 -14.454000473022461 0 -1
118.0999984741211 85.80000305175781 -5.410999774932861 1 -1
112.5999984741211 92.19999694824219 -15.675999641418457 0 -1
114.4000015258789 85.5999984741211 -15.934000015258789 0 -1
114 91.5999984741211 -15.892999649047852 0 -1
114.5999984741211 90 -16.73699951171875 0 -1
120.0999984741211 84.80000305175781 -13.972999572753906 0 -1
112.19999694824219 91 -15.640000343322754 0 -1
115 79.5 -12.102999687194824 0 -1
110.80000305175781 79.4000015258789 -12.855999946594238 0 -1
119.0999984741211 78.9000015258789 -12.531999588012695 0 -1
116.80000305175781 92.80000305175781 -13.972000122070312 0 -1
110.4000015258789 80.4000015258789 -11.76099967956543 0 -1
116.69999694824219 93 -13.949999809265137 0 -1
114.19999694824219 85.30000305175781 -16.268999099731445 0 -1
122.80000305175781 85.5 -14.347999572753906 0 -1
113.0999984741211 88.80000305175781 -15.916000366210938 0 -1
116.19999694824219 91.30000305175781 -15.692999839782715 0 -1
117.30000305175781 89.5 -15.138999938964844 0 -1
117.19999694824219 82.80000305175781 -14.307000160217285 0 -1
117.80000305175781 84.0999984741211 -13.975000381469727 0 -1
110.19999694824219 84.69999694824219 -14.241000175476074 0 -1
118.19999694824219 81.9000015258789 -14.263999938964844 0 -1
