VERSION .7
FIELDS x y z label object
SIZE 4 4 4 4 4
TYPE F F F I I
COUNT 1 1 1 1 1
WIDTH 883
HEIGHT 1
POINTS 883
VIEWPOINT 0 0 0 1 0 0 0
DATA ascii
72.69999694824219 88.0999984741211 -10.008000373840332 0 -1
78.9000015258789 88.69999694824219 -9.5 0 -1
74.4000015258789 86.19999694824219 -10.234999656677246 0 -1
79 87.69999694824219 -9.84000015258789 0 -1
75.19999694824219 84.80000305175781 -7.864999771118164 1 -1
75.80000305175781 84 -7.73199987411499 1 -1
77.69999694824219 83 -7.86899995803833 1 -1
74.19999694824219 88.69999694824219 -9.588000297546387 0 -1
75.5 82 -3.8399999141693115 1 -1
79.5 83.69999694824219 -9.166999816894531 0 -1
74.5999984741211 89.5999984741211 -9.416999816894531 0 -1
75.69999694824219 88.5 -9.756999969482422 0 -1
77.80000305175781 84.80000305175781 -10.121000289916992 0 -1
79.30000305175781 87.5 -9.73799991607666 0 -1
79.0999984741211 86.30000305175781 -9.352999687194824 0 -1
79.5999984741211 88.5 -9.192999839782715 0 -1
79.69999694824219 86 -9.333000183105469 0 -1
76.19999694824219 89.69999694824219 -8.902000427246094 0 -1
73.9000015258789 87.80000305175781 -10.180999755859375 0 -1
76.5999984741211 87.69999694824219 -9.5 0 -1
79.30000305175781 87.5999984741211 -9.753999710083008 0 -1
78.80000305175781 86.5 -9.218000411987305 0 -1
74.19999694824219 88.5999984741211 -9.5649995803833 0 -1
74.5 88.9000015258789 -9.706000328063965 0 -1
79.69999694824219 85.9000015258789 -9.357999801635742 0 -1
72.5999984741211 83.4000015258789 -8.729000091552734 1 -1
76.19999694824219 89.5999984741211 -9.147000312805176 0 -1
78.80000305175781 86.4000015258789 -9.477999687194824 0 -1
73.9000015258789 87.69999694824219 -10.211000442504883 0 -1
77.9000015258789 88.4000015258789 -9.689000129699707 0 -1
75.0999984741211 87.80000305175781 -9.687999725341797 0 -1
73.0999984741211 87.0999984741211 -9.859999656677246 0 -1
79 87.80000305175781 -9.859999656677246 0 -1
78.30000305175781 84.30000305175781 -9.781000137329102 0 -1
78.9000015258789 88.5999984741211 -9.434000015258789 0 -1
74.4000015258789 86.30000305175781 -10.229000091552734 0 -1
75.5 82.0999984741211 -4.179999828338623 1 -1
78.9000015258789 88.80000305175781 -9.302000045776367 0 -1
75.80000305175781 84.0999984741211 -7.7220001220703125 1 -1
75.0999984741211 87.69999694824219 -9.739999771118164 0 -1
76.19999694824219 89.80000305175781 -8.942000389099121 0 -1
75.9000015258789 87.0999984741211 -9.484999656677246 0 -1
79.5 83.5999984741211 -9.246999740600586 0 -1
74.5999984741211 89.69999694824219 -9.392999649047852 0 -1
75.69999694824219 88.4000015258789 -9.788000106811523 0 -1
76.5999984741211 87.5999984741211 -9.527000427246094 0 -1
72.5999984741211 83.19999694824219 -5.991000175476074 1 -1
75.19999694824219 84.69999694824219 -7.510000228881836 1 -1
73 84 -6.922999858856201 1 -1
74.69999694824219 82.5999984741211 -7.489999771118164 1 -1
79.0999984741211 86.4000015258789 -9.128999710083008 0 -1
72.69999694824219 88.19999694824219 -9.956000328063965 0 -1
79 87.5999984741211 -9.859999656677246 0 -1
79.0999984741211 86.5 -9.204000473022461 0 -1
80 84.5999984741211 -8.895999908447266 0 -1
75.30000305175781 84.9000015258789 -7.864999771118164 1 -1
72.69999694824219 88.30000305175781 -9.937000274658203 0 -1
74.19999694824219 89 -9.57699966430664 0 -1
77.9000015258789 88.80000305175781 -9.592000007629395 0 -1
75.19999694824219 84.5 -7.765999794006348 1 -1
79.30000305175781 87.69999694824219 -9.781000137329102 0 -1
75.80000305175781 84.19999694824219 -7.921000003814697 1 -1
73.0999984741211 87.5 -10.194999694824219 0 -1
75.5 82.19999694824219 -3.8399999141693115 1 -1
74.5999984741211 89.80000305175781 -9.062999725341797 0 -1
75.69999694824219 88.30000305175781 -9.777999877929688 0 -1
76.5999984741211 88 -9.496999740600586 0 -1
74.4000015258789 86.5 -9.98799991607666 0 -1
79.69999694824219 85.80000305175781 -9.333000183105469 0 -1
74.5 89 -9.71399974822998 0 -1
79.5 83.5 -9.220999717712402 0 -1
78.80000305175781 86.30000305175781 -9.51200008392334 0 -1
75.19999694824219 84.5999984741211 -7.703999996185303 1 -1
72.5999984741211 83.30000305175781 -5.625999927520752 1 -1
74.19999694824219 88.9000015258789 -9.579999923706055 0 -1
73.9000015258789 87.5999984741211 -9.994000434875488 0 -1
74.4000015258789 86.4000015258789 -10.222999572753906 0 -1
79.30000305175781 87.80000305175781 -9.555000305175781 0 -1
75.30000305175781 84.5999984741211 -7.765999794006348 1 -1
79.9000015258789 89.80000305175781 -8.677000045776367 0 -1
78.9000015258789 87.4000015258789 -9.866000175476074 0 -1
79.5999984741211 88.4000015258789 -9.239999771118164 0 -1
73 84.4000015258789 -6.861999988555908 1 -1
75.30000305175781 84.5 -7.431000232696533 1 -1
77.9000015258789 88.5999984741211 -9.592000007629395 0 -1
73.9000015258789 87.5 -9.984000205993652 0 -1
80 84.5 -8.918000221252441 0 -1
72.5999984741211 83.5999984741211 -8.729000091552734 1 -1
76 82.4000015258789 -7.3379998207092285 1 -1
79.0999984741211 89.5999984741211 -8.925000190734863 0 -1
75.0999984741211 87.5999984741211 -9.765000343322754 0 -1
75.19999694824219 84.4000015258789 -7.431000232696533 1 -1
75.0999984741211 87.5 -9.739999771118164 0 -1
74.5999984741211 89.4000015258789 -9.416999816894531 0 -1
79.4000015258789 87.5 -9.708000183105469 0 -1
77.9000015258789 88.69999694824219 -9.616000175476074 0 -1
75.5 82.30000305175781 -4.197999954223633 1 -1
79 88.5 -9.583000183105469 0 -1
75.80000305175781 84.30000305175781 -7.947999954223633 1 -1
73 84.30000305175781 -6.830999851226807 1 -1
73.0999984741211 87.4000015258789 -10.159000396728516 0 -1
75.69999694824219 88.19999694824219 -9.788000106811523 0 -1
79.0999984741211 89.69999694824219 -8.861000061035156 0 -1
74.4000015258789 86.5999984741211 -9.972000122070312 0 -1
79.9000015258789 89.5999984741211 -8.789999961853027 0 -1
75.9000015258789 87.5 -9.708999633789062 0 -1
78.9000015258789 87.30000305175781 -9.756999969482422 0 -1
74.5 88.0999984741211 -9.711999893188477 0 -1
75.30000305175781 84.69999694824219 -7.864999771118164 1 -1
76.19999694824219 89.9000015258789 -8.869999885559082 0 -1
80 84.69999694824219 -8.918000221252441 0 -1
76.5999984741211 87.9000015258789 -9.489999771118164 0 -1
78.30000305175781 84.4000015258789 -9.949000358581543 0 -1
79.5999984741211 89.80000305175781 -7.945000171661377 1 -1
77.9000015258789 89 -9.380000114440918 0 -1
72.5999984741211 83.69999694824219 -9.902000427246094 1 -1
77.4000015258789 82.80000305175781 -7.728000164031982 1 -1
78.80000305175781 86.19999694824219 -9.477999687194824 0 -1
74.19999694824219 88.30000305175781 -9.57699966430664 0 -1
74.5999984741211 89.5 -9.392999649047852 0 -1
75.69999694824219 88.0999984741211 -9.98799991607666 0 -1
77.4000015258789 82.69999694824219 -7.7129998207092285 1 -1
79.30000305175781 87.9000015258789 -9.510000228881836 0 -1
75.9000015258789 87.30000305175781 -9.484999656677246 0 -1
73.0999984741211 87.30000305175781 -10.050999641418457 0 -1
76 82.30000305175781 -7.336999893188477 1 -1
78.9000015258789 87.5 -9.920000076293945 0 -1
74.5 88.30000305175781 -9.581000328063965 0 -1
79.9000015258789 89.69999694824219 -8.718000411987305 0 -1
78.80000305175781 86.0999984741211 -9.51200008392334 0 -1
73 84.69999694824219 -6.931000232696533 1 -1
73.0999984741211 87.80000305175781 -10.230999946594238 0 -1
74.19999694824219 88.19999694824219 -9.61299991607666 0 -1
75.80000305175781 84.4000015258789 -7.973999977111816 1 -1
72.5999984741211 83.5 -8.809000015258789 1 -1
75.9000015258789 87.4000015258789 -9.710000038146973 0 -1
76.80000305175781 83.69999694824219 -7.263000011444092 1 -1
79.5999984741211 89.5999984741211 -8.836999893188477 0 -1
76.19999694824219 90 -8.942000389099121 0 -1
73.9000015258789 87.4000015258789 -9.984000205993652 0 -1
79.4000015258789 87.4000015258789 -9.73799991607666 0 -1
75.0999984741211 87.4000015258789 -9.765000343322754 0 -1
75.5 82.4000015258789 -4.228000164031982 1 -1
79 88.4000015258789 -9.612000465393066 0 -1
79.9000015258789 90 -7.644000053405762 1 -1
77.30000305175781 89.5999984741211 -8.92199993133545 0 -1
78.30000305175781 84 -9.34000015258789 0 -1
74.0999984741211 85.19999694824219 -7.889999866485596 1 -1
79.5999984741211 89.69999694824219 -8.869999885559082 0 -1
79.0999984741211 89.80000305175781 -8.925000190734863 0 -1
73.9000015258789 87.30000305175781 -9.967000007629395 0 -1
77.19999694824219 88.5 -9.604000091552734 0 -1
80 84.80000305175781 -8.895999908447266 0 -1
77.4000015258789 82.9000015258789 -7.7129998207092285 1 -1
75.0999984741211 87.30000305175781 -9.84000015258789 0 -1
77.30000305175781 89.69999694824219 -8.854000091552734 0 -1
79.4000015258789 87.30000305175781 -9.708000183105469 0 -1
79 88.19999694824219 -9.668999671936035 0 -1
79.0999984741211 89.9000015258789 -7.714000225067139 1 -1
76.19999694824219 86.0999984741211 -10.133999824523926 0 -1
75.5 83.5 -4.664000034332275 1 -1
74.5 88.19999694824219 -9.628999710083008 0 -1
73.0999984741211 87.69999694824219 -10.194999694824219 0 -1
78.80000305175781 88 -9.954000473022461 0 -1
78.30000305175781 84.19999694824219 -9.244999885559082 0 -1
74.0999984741211 85 -7.889999866485596 1 -1
76.80000305175781 83.5999984741211 -7.265999794006348 1 -1
75.80000305175781 83.5 -7.761000156402588 1 -1
73.19999694824219 87 -9.649999618530273 0 -1
74.5999984741211 89.0999984741211 -9.63700008392334 0 -1
79.30000305175781 88 -9.555000305175781 0 -1
75.19999694824219 84.30000305175781 -7.827000141143799 1 -1
74.4000015258789 86.69999694824219 -9.918000221252441 0 -1
74.5 88.4000015258789 -9.5649995803833 0 -1
74.0999984741211 85.0999984741211 -7.901000022888184 1 -1
75.30000305175781 85.30000305175781 -7.90500020980835 1 -1
78.30000305175781 84.0999984741211 -9.314000129699707 0 -1
72.5999984741211 83.9000015258789 -9.902000427246094 1 -1
72.69999694824219 88.5999984741211 -9.880000114440918 0 -1
75.9000015258789 88.80000305175781 -9.673999786376953 0 -1
78.4000015258789 83.19999694824219 -9.444999694824219 0 -1
73 84.5999984741211 -6.927000045776367 1 -1
79.30000305175781 84 -9.220000267028809 0 -1
75.69999694824219 90 -8.89799976348877 0 -1
79.5999984741211 90 -7.114999771118164 1 -1
74.4000015258789 86.9000015258789 -9.8100004196167 0 -1
78.9000015258789 87.0999984741211 -9.64799976348877 0 -1
73.19999694824219 86.80000305175781 -9.649999618530273 0 -1
74.19999694824219 88.0999984741211 -9.621000289916992 0 -1
72.69999694824219 88.69999694824219 -9.89900016784668 0 -1
79.9000015258789 89.9000015258789 -7.1519999504089355 1 -1
75.19999694824219 84.0999984741211 -7.609000205993652 1 -1
79 88.30000305175781 -9.640000343322754 0 -1
75.5 83.5999984741211 -3.890000104904175 1 -1
78.4000015258789 83.30000305175781 -9.498000144958496 0 -1
77.9000015258789 88.9000015258789 -9.423999786376953 0 -1
74.4000015258789 86.80000305175781 -9.972000122070312 0 -1
73.0999984741211 87.5999984741211 -10.230999946594238 0 -1
73 84.5 -6.830999851226807 1 -1
74.5999984741211 89.19999694824219 -9.630999565124512 0 -1
73.19999694824219 86.9000015258789 -9.706000328063965 0 -1
75.30000305175781 85.5 -7.90500020980835 1 -1
75.19999694824219 84.19999694824219 -7.361000061035156 1 -1
78.30000305175781 83.80000305175781 -9.390999794006348 0 -1
77.19999694824219 88.4000015258789 -9.732000350952148 0 -1
73.9000015258789 87.19999694824219 -9.697999954223633 0 -1
75.80000305175781 83.5999984741211 -7.751999855041504 1 -1
77.9000015258789 87.19999694824219 -9.769000053405762 0 -1
80 84.9000015258789 -8.967000007629395 0 -1
76.80000305175781 83.5 -7.269000053405762 1 -1
79.4000015258789 87.19999694824219 -9.678999900817871 0 -1
75.0999984741211 87.19999694824219 -9.885000228881836 0 -1
75.69999694824219 89.9000015258789 -8.892000198364258 0 -1
75.30000305175781 85.4000015258789 -7.6519999504089355 1 -1
77.30000305175781 89.80000305175781 -8.92199993133545 0 -1
74.0999984741211 85.4000015258789 -8.144000053405762 1 -1
79.5999984741211 89.9000015258789 -7.60699987411499 1 -1
79 88.0999984741211 -9.939000129699707 0 -1
75.9000015258789 88.5999984741211 -9.687999725341797 0 -1
77.80000305175781 85.69999694824219 -9.692000389099121 0 -1
78.80000305175781 87.9000015258789 -9.935999870300293 0 -1
73.19999694824219 86.69999694824219 -9.817999839782715 0 -1
74.4000015258789 87 -9.741000175476074 0 -1
79.0999984741211 90 -8.244999885559082 1 -1
75.19999694824219 84 -7.734000205993652 1 -1
75.5 83.69999694824219 -4.664000034332275 1 -1
77.30000305175781 89.9000015258789 -8.718000411987305 0 -1
77.19999694824219 88.19999694824219 -9.732000350952148 0 -1
78.9000015258789 87.19999694824219 -9.810999870300293 0 -1
77.4000015258789 83 -7.756999969482422 1 -1
75.9000015258789 88.69999694824219 -9.694000244140625 0 -1
74.5 88.5 -9.581000328063965 0 -1
76.19999694824219 86.19999694824219 -10.07800006866455 0 -1
72.69999694824219 88.80000305175781 -9.880000114440918 0 -1
74.5999984741211 89.30000305175781 -9.63700008392334 0 -1
72.5999984741211 83.80000305175781 -9.963000297546387 1 -1
73.0999984741211 88 -10.142000198364258 0 -1
79.30000305175781 84.0999984741211 -9.1899995803833 0 -1
74.19999694824219 88.5 -9.57699966430664 0 -1
73.9000015258789 87.0999984741211 -9.744999885559082 0 -1
75.80000305175781 83.69999694824219 -7.761000156402588 1 -1
77.9000015258789 87.0999984741211 -9.805999755859375 0 -1
75.9000015258789 89 -9.553999900817871 0 -1
74.0999984741211 85.30000305175781 -7.901000022888184 1 -1
79.4000015258789 87.0999984741211 -9.6899995803833 0 -1
75.69999694824219 89.80000305175781 -8.95199966430664 0 -1
74.19999694824219 88.4000015258789 -9.5649995803833 0 -1
78.4000015258789 83.4000015258789 -9.33899974822998 0 -1
80 84 -9.131999969482422 0 -1
75.30000305175781 85.0999984741211 -7.802000045776367 1 -1
79.30000305175781 84.19999694824219 -9.508999824523926 0 -1
73.9000015258789 87 -9.697999954223633 0 -1
79.9000015258789 89.30000305175781 -8.925000190734863 0 -1
75.5 83.80000305175781 -4.464000225067139 1 -1
79 89 -9.312000274658203 0 -1
79.0999984741211 89.0999984741211 -9.319999694824219 0 -1
75.0999984741211 87.0999984741211 -9.904999732971191 0 -1
74.5 89.69999694824219 -9.406999588012695 0 -1
73 84.9000015258789 -6.7779998779296875 1 -1
77.19999694824219 88.30000305175781 -9.739999771118164 0 -1
77.4000015258789 83.0999984741211 -7.770999908447266 1 -1
75.30000305175781 85 -7.559999942779541 1 -1
79.4000015258789 88 -9.487000465393066 0 -1
78.9000015258789 87.9000015258789 -9.918999671936035 0 -1
76.19999694824219 86.30000305175781 -9.930999755859375 0 -1
73 84.80000305175781 -6.927000045776367 1 -1
79.9000015258789 89.0999984741211 -8.925000190734863 0 -1
75.80000305175781 83.80000305175781 -7.73199987411499 1 -1
73.0999984741211 87.9000015258789 -10.11400032043457 0 -1
77.80000305175781 85.5999984741211 -9.630000114440918 0 -1
78.80000305175781 87.80000305175781 -9.859999656677246 0 -1
80 84.19999694824219 -8.982000350952148 0 -1
75.69999694824219 89.69999694824219 -8.986000061035156 0 -1
79.0999984741211 89.19999694824219 -9.196000099182129 0 -1
75.30000305175781 85.19999694824219 -7.804999828338623 1 -1
77.19999694824219 88.0999984741211 -9.739999771118164 0 -1
78.30000305175781 83.9000015258789 -9.314000129699707 0 -1
77.80000305175781 85.9000015258789 -9.567000389099121 0 -1
74.4000015258789 85.0999984741211 -7.894999980926514 1 -1
78.80000305175781 87.69999694824219 -9.84000015258789 0 -1
74.5999984741211 88.9000015258789 -9.625 0 -1
77.30000305175781 90 -8.78600025177002 0 -1
74.69999694824219 83.80000305175781 -6.836999893188477 1 -1
75.5 83.9000015258789 -4.531000137329102 1 -1
74.0999984741211 82.5999984741211 -7.916999816894531 1 -1
77.4000015258789 83.30000305175781 -7.770999908447266 1 -1
74.5 89.5999984741211 -9.437000274658203 0 -1
74.4000015258789 85 -4.7210001945495605 1 -1
74.69999694824219 83.9000015258789 -7.4079999923706055 1 -1
73.19999694824219 86.5999984741211 -9.76200008392334 0 -1
79.5999984741211 89.30000305175781 -8.968999862670898 0 -1
75.0999984741211 84.9000015258789 -7.864999771118164 1 -1
74.19999694824219 87.80000305175781 -9.633999824523926 0 -1
77.4000015258789 83.19999694824219 -7.756999969482422 1 -1
75.19999694824219 88 -9.607999801635742 0 -1
79.4000015258789 87.9000015258789 -9.809000015258789 0 -1
78.9000015258789 88 -9.939000129699707 0 -1
75.80000305175781 83.9000015258789 -7.7220001220703125 1 -1
79.30000305175781 84.30000305175781 -9.628999710083008 0 -1
74.4000015258789 85.19999694824219 -7.931000232696533 1 -1
76.19999694824219 86.5 -9.935999870300293 0 -1
80 84.0999984741211 -9.303999900817871 0 -1
73.9000015258789 86.9000015258789 -9.744999885559082 0 -1
79.30000305175781 84.4000015258789 -9.668999671936035 0 -1
75.0999984741211 84.80000305175781 -7.559999942779541 1 -1
79.9000015258789 89.19999694824219 -8.880000114440918 0 -1
75.69999694824219 89.5999984741211 -8.984999656677246 0 -1
77.80000305175781 86 -9.505000114440918 0 -1
74.5999984741211 89 -9.630999565124512 0 -1
73.4000015258789 82.80000305175781 -6.695000171661377 1 -1
78.4000015258789 83.0999984741211 -9.498000144958496 0 -1
74.19999694824219 87.69999694824219 -9.673999786376953 0 -1
79.5999984741211 89.0999984741211 -8.923999786376953 0 -1
79 88.9000015258789 -9.399999618530273 0 -1
74.5 89.80000305175781 -9.128000259399414 0 -1
76.19999694824219 86.4000015258789 -9.972000122070312 0 -1
79.9000015258789 89.5 -8.835000038146973 0 -1
78.30000305175781 83.5 -9.33899974822998 0 -1
73.9000015258789 86.80000305175781 -9.883999824523926 0 -1
75.9000015258789 88.9000015258789 -9.666999816894531 0 -1
77.30000305175781 89.0999984741211 -9.23799991607666 0 -1
77.19999694824219 89 -9.437000274658203 0 -1
77.9000015258789 87.5 -9.951000213623047 0 -1
79.5999984741211 89.19999694824219 -8.970000267028809 0 -1
79.0999984741211 89.30000305175781 -9.154999732971191 0 -1
80 84.30000305175781 -8.961000442504883 0 -1
73.30000305175781 90 -8.991000175476074 0 -1
75.5 83 -4.066999912261963 1 -1
77.80000305175781 85.80000305175781 -9.505000114440918 0 -1
78.80000305175781 87.5999984741211 -9.859999656677246 0 -1
76.19999694824219 86.5999984741211 -9.984999656677246 0 -1
73.4000015258789 82.69999694824219 -7.88700008392334 1 -1
77.30000305175781 89.19999694824219 -9.199000358581543 0 -1
79.69999694824219 82.9000015258789 -9.307999610900879 0 -1
74.5999984741211 88.5999984741211 -9.487000465393066 0 -1
79.0999984741211 89.4000015258789 -9.053999900817871 0 -1
75.19999694824219 87.9000015258789 -9.633000373840332 0 -1
75.9000015258789 88.19999694824219 -9.600000381469727 0 -1
74.69999694824219 83.5 -4.9029998779296875 1 -1
78.80000305175781 87.5 -9.97599983215332 0 -1
76.80000305175781 83.0999984741211 -7.293000221252441 1 -1
75.80000305175781 83 -7.7729997634887695 1 -1
77.9000015258789 87.30000305175781 -9.829999923706055 0 -1
78.30000305175781 83.69999694824219 -9.366000175476074 0 -1
75.9000015258789 88.30000305175781 -9.583000183105469 0 -1
79.4000015258789 87.80000305175781 -9.781000137329102 0 -1
75.0999984741211 84.69999694824219 -7.864999771118164 1 -1
77.9000015258789 87.4000015258789 -9.890999794006348 0 -1
74.0999984741211 82.5 -7.973999977111816 1 -1
78.30000305175781 83.5999984741211 -9.390999794006348 0 -1
75.69999694824219 89.5 -9.1850004196167 0 -1
78.9000015258789 87.5999984741211 -9.84000015258789 0 -1
75.19999694824219 87.69999694824219 -9.741000175476074 0 -1
75.30000305175781 85.80000305175781 -7.775000095367432 1 -1
79.30000305175781 84.5 -9.628999710083008 0 -1
75.5 83.0999984741211 -3.872999906539917 1 -1
79.5999984741211 89.5 -8.869999885559082 0 -1
73.4000015258789 82.9000015258789 -7.948999881744385 1 -1
74.19999694824219 87.5999984741211 -9.66100025177002 0 -1
79 88.80000305175781 -9.442000389099121 0 -1
74.5 89.9000015258789 -8.954999923706055 0 -1
79.4000015258789 87.69999694824219 -9.809000015258789 0 -1
74.5999984741211 88.69999694824219 -9.61299991607666 0 -1
79.9000015258789 89.4000015258789 -8.789999961853027 0 -1
77.69999694824219 82.9000015258789 -7.864999771118164 1 -1
74.19999694824219 88 -9.633999824523926 0 -1
75.19999694824219 87.80000305175781 -9.706000328063965 0 -1
75.30000305175781 86 -7.946000099182129 1 -1
77.19999694824219 88.9000015258789 -9.39799976348877 0 -1
78.4000015258789 83.80000305175781 -9.329000473022461 0 -1
73.9000015258789 86.69999694824219 -9.838000297546387 0 -1
75.9000015258789 88.0999984741211 -9.652000427246094 0 -1
80 84.4000015258789 -8.982000350952148 0 -1
76.80000305175781 83 -7.291999816894531 1 -1
79.30000305175781 84.5999984741211 -9.668999671936035 0 -1
75.80000305175781 83.0999984741211 -7.789999961853027 1 -1
79 88.5999984741211 -9.527000427246094 0 -1
73.30000305175781 89.9000015258789 -8.904000282287598 0 -1
74.4000015258789 85.30000305175781 -7.764999866485596 1 -1
78.9000015258789 87.80000305175781 -9.89900016784668 0 -1
77.9000015258789 87.69999694824219 -9.864999771118164 0 -1
78.30000305175781 83.30000305175781 -9.444999694824219 0 -1
77.80000305175781 85.19999694824219 -9.91100025177002 0 -1
78.4000015258789 83.9000015258789 -9.300999641418457 0 -1
73.9000015258789 86.5999984741211 -9.883999824523926 0 -1
77.30000305175781 89.30000305175781 -9.157999992370605 0 -1
79.0999984741211 89.5 -8.989999771118164 0 -1
75.19999694824219 87.5999984741211 -9.762999534606934 0 -1
75.30000305175781 85.9000015258789 -7.738999843597412 1 -1
73.30000305175781 89.80000305175781 -8.98799991607666 0 -1
75.69999694824219 89.4000015258789 -9.305000305175781 0 -1
79.5999984741211 89.4000015258789 -8.935999870300293 0 -1
77.9000015258789 87.80000305175781 -9.883999824523926 0 -1
74.69999694824219 83.5999984741211 -4.769999980926514 1 -1
78.80000305175781 87.4000015258789 -9.911999702453613 0 -1
78.30000305175781 83.19999694824219 -9.498000144958496 0 -1
80 85.5999984741211 -9.213000297546387 0 -1
77.30000305175781 89.4000015258789 -9.199000358581543 0 -1
74.69999694824219 83.69999694824219 -7.301000118255615 1 -1
77.69999694824219 82.80000305175781 -7.861000061035156 1 -1
74.4000015258789 85.5 -6.98199987411499 1 -1
78.80000305175781 87.30000305175781 -9.97599983215332 0 -1
74.0999984741211 82.9000015258789 -8.324999809265137 1 -1
75.0999984741211 84.5999984741211 -7.765999794006348 1 -1
77.80000305175781 85 -10.281000137329102 0 -1
76.19999694824219 86.69999694824219 -9.963000297546387 0 -1
78.9000015258789 87.69999694824219 -9.859999656677246 0 -1
76.80000305175781 83.4000015258789 -7.271999835968018 1 -1
79 88.69999694824219 -9.399999618530273 0 -1
74.5 90 -8.880000114440918 0 -1
75.5 83.19999694824219 -4.066999912261963 1 -1
74.4000015258789 85.4000015258789 -7.751999855041504 1 -1
78.30000305175781 83.4000015258789 -9.392000198364258 0 -1
75.80000305175781 83.19999694824219 -7.7729997634887695 1 -1
77.9000015258789 87.5999984741211 -10.071999549865723 0 -1
74.19999694824219 87.9000015258789 -9.621000289916992 0 -1
79.4000015258789 87.5999984741211 -9.73799991607666 0 -1
75.0999984741211 84.5 -7.431000232696533 1 -1
74.5999984741211 88.80000305175781 -9.607000350952148 0 -1
75.69999694824219 89.30000305175781 -9.413000106811523 0 -1
75.30000305175781 85.5999984741211 -7.6519999504089355 1 -1
75.9000015258789 88.5 -9.694000244140625 0 -1
79 89.5 -9.199999809265137 0 -1
74.5 89.19999694824219 -9.71399974822998 0 -1
74.0999984741211 82.69999694824219 -7.973999977111816 1 -1
77.19999694824219 88.80000305175781 -9.437000274658203 0 -1
79.30000305175781 84.69999694824219 -9.480999946594238 0 -1
76.19999694824219 86.9000015258789 -9.595999717712402 0 -1
79.9000015258789 88.80000305175781 -8.980999946594238 0 -1
78.4000015258789 83.5 -9.392000198364258 0 -1
79.0999984741211 88.5999984741211 -9.583000183105469 0 -1
76.19999694824219 86.80000305175781 -9.67199993133545 0 -1
74.0999984741211 82.80000305175781 -8.031999588012695 1 -1
73.9000015258789 86.5 -9.821000099182129 0 -1
73.30000305175781 89.69999694824219 -9.62600040435791 0 -1
77.80000305175781 85.0999984741211 -9.95300006866455 0 -1
74.69999694824219 83.19999694824219 -4.436999797821045 1 -1
76.80000305175781 83.30000305175781 -7.293000221252441 1 -1
79.0999984741211 88.69999694824219 -9.442000389099121 0 -1
75.5 83.30000305175781 -3.872999906539917 1 -1
77.19999694824219 88.5999984741211 -9.57699966430664 0 -1
79.9000015258789 88.5999984741211 -9.07699966430664 0 -1
77.80000305175781 85.4000015258789 -9.82699966430664 0 -1
79.69999694824219 83.0999984741211 -9.217000007629395 0 -1
74.5999984741211 88.4000015258789 -9.487000465393066 0 -1
74.4000015258789 85.5999984741211 -6.906000137329102 1 -1
75.80000305175781 83.30000305175781 -7.823999881744385 1 -1
74.69999694824219 83.30000305175781 -4.9029998779296875 1 -1
75.30000305175781 85.69999694824219 -7.39900016784668 1 -1
73.30000305175781 89.5999984741211 -9.663000106811523 0 -1
75.69999694824219 89.19999694824219 -9.376999855041504 0 -1
77.30000305175781 89.5 -9.074999809265137 0 -1
80 85.69999694824219 -9.206999778747559 0 -1
74 85 -7.978000164031982 1 -1
78.80000305175781 87.19999694824219 -9.911999702453613 0 -1
78.9000015258789 86.30000305175781 -9.284000396728516 0 -1
76.19999694824219 87 -9.67199993133545 0 -1
79.5 89.5 -8.468999862670898 1 -1
78.9000015258789 86.5 -9.152000427246094 0 -1
79.4000015258789 84.4000015258789 -9.343999862670898 0 -1
74.5 89.0999984741211 -9.722999572753906 0 -1
76.4000015258789 85.80000305175781 -10.187000274658203 0 -1
76.80000305175781 83.19999694824219 -7.291999816894531 1 -1
79.30000305175781 84.80000305175781 -9.47599983215332 0 -1
75.19999694824219 87.5 -9.741000175476074 0 -1
75.0999984741211 84.4000015258789 -7.827000141143799 1 -1
75.5 83.4000015258789 -3.890000104904175 1 -1
79 89.4000015258789 -9.161999702453613 0 -1
75.0999984741211 84.30000305175781 -7.431000232696533 1 -1
74.5 89.30000305175781 -9.722999572753906 0 -1
79.9000015258789 88.69999694824219 -9.029000282287598 0 -1
79.4000015258789 84.30000305175781 -9.35099983215332 0 -1
77.19999694824219 88.69999694824219 -9.550999641418457 0 -1
78.4000015258789 83.5999984741211 -9.33899974822998 0 -1
75.80000305175781 83.4000015258789 -7.841000080108643 1 -1
77.80000305175781 85.5 -9.692000389099121 0 -1
74.5999984741211 88.5 -9.508000373840332 0 -1
75.69999694824219 89.0999984741211 -9.446000099182129 0 -1
74.4000015258789 85.69999694824219 -6.936999797821045 1 -1
79.30000305175781 84.9000015258789 -9.470000267028809 0 -1
79.0999984741211 88.80000305175781 -9.399999618530273 0 -1
76.5 82.80000305175781 -7.318999767303467 1 -1
76.69999694824219 89.4000015258789 -9.109000205993652 0 -1
76.9000015258789 85.9000015258789 -9.989999771118164 0 -1
77.19999694824219 89.5 -9.01200008392334 0 -1
74.19999694824219 87.19999694824219 -9.741000175476074 0 -1
74 85.0999984741211 -7.98799991607666 1 -1
78.4000015258789 83.69999694824219 -9.357000350952148 0 -1
75.5 84.5 -4.2230000495910645 1 -1
79.5 89.4000015258789 -8.968999862670898 0 -1
76.5 82.69999694824219 -7.314000129699707 1 -1
78.9000015258789 86.4000015258789 -9.350000381469727 0 -1
75.19999694824219 87.30000305175781 -9.829000473022461 0 -1
79.9000015258789 89 -8.980999946594238 0 -1
77.9000015258789 88 -9.949000358581543 0 -1
75.9000015258789 88.4000015258789 -9.600000381469727 0 -1
77.30000305175781 88.5999984741211 -9.550999641418457 0 -1
79.69999694824219 83 -9.262999534606934 0 -1
75.30000305175781 82.30000305175781 -4.197999954223633 1 -1
73.30000305175781 89.5 -9.800000190734863 0 -1
77.80000305175781 85.30000305175781 -9.869000434875488 0 -1
74.69999694824219 83.4000015258789 -4.769999980926514 1 -1
75.19999694824219 87.4000015258789 -9.762999534606934 0 -1
79.69999694824219 83.4000015258789 -8.878000259399414 0 -1
76.80000305175781 82.5999984741211 -7.242000102996826 1 -1
77.30000305175781 88.69999694824219 -9.52400016784668 0 -1
78.80000305175781 87.0999984741211 -9.722000122070312 0 -1
74.69999694824219 83 -7.519999980926514 1 -1
75.69999694824219 87 -9.5600004196167 0 -1
80 85.80000305175781 -9.204000473022461 0 -1
76.9000015258789 86 -9.857999801635742 0 -1
75.30000305175781 82.19999694824219 -3.8399999141693115 1 -1
76.69999694824219 89.5 -9.157999992370605 0 -1
76.5 82.9000015258789 -7.314000129699707 1 -1
78.9000015258789 86.0999984741211 -9.553999900817871 0 -1
75.5 84.5999984741211 -4.1579999923706055 1 -1
74 85.19999694824219 -7.9679999351501465 1 -1
75.19999694824219 87.19999694824219 -9.807000160217285 0 -1
80 86 -9.291999816894531 0 -1
75.80000305175781 82.5 -7.360000133514404 1 -1
78.30000305175781 83.0999984741211 -9.494000434875488 0 -1
79.5 89.30000305175781 -8.935999870300293 0 -1
76.4000015258789 85.9000015258789 -10.189000129699707 0 -1
74.5999984741211 88.0999984741211 -9.61400032043457 0 -1
79.4000015258789 84.19999694824219 -9.343999862670898 0 -1
75.0999984741211 84.19999694824219 -7.827000141143799 1 -1
77.9000015258789 87.9000015258789 -9.906000137329102 0 -1
79 89.30000305175781 -9.199999809265137 0 -1
74.5 89.4000015258789 -9.437000274658203 0 -1
75.9000015258789 89.80000305175781 -8.968999862670898 0 -1
76.19999694824219 87.0999984741211 -9.442000389099121 0 -1
77.69999694824219 85.5 -9.795999526977539 0 -1
74.19999694824219 87.0999984741211 -9.668999671936035 0 -1
79.0999984741211 88.9000015258789 -9.319999694824219 0 -1
75.69999694824219 86.9000015258789 -9.460000038146973 0 -1
76.4000015258789 86 -10.187000274658203 0 -1
74.19999694824219 87.5 -9.524999618530273 0 -1
77.19999694824219 89.4000015258789 -9.281000137329102 0 -1
76.9000015258789 85.80000305175781 -9.946000099182129 0 -1
78.4000015258789 88.4000015258789 -9.508999824523926 0 -1
75.0999984741211 84.0999984741211 -7.699999809265137 1 -1
77.9000015258789 86.19999694824219 -9.512999534606934 0 -1
79.4000015258789 84.0999984741211 -9.329999923706055 0 -1
78.80000305175781 84.9000015258789 -9.756999969482422 0 -1
77.30000305175781 88.80000305175781 -9.550999641418457 0 -1
79 89.0999984741211 -9.274999618530273 0 -1
79.0999984741211 89 -9.279000282287598 0 -1
79.9000015258789 88.9000015258789 -8.932999610900879 0 -1
75.30000305175781 82.4000015258789 -4.228000164031982 1 -1
79.30000305175781 85.0999984741211 -9.572999954223633 0 -1
79.5999984741211 82.9000015258789 -9.364999771118164 0 -1
78.80000305175781 84.80000305175781 -9.74899959564209 0 -1
75.80000305175781 82.5999984741211 -7.3520002365112305 1 -1
75.5 84.69999694824219 -4.093999862670898 1 -1
76.69999694824219 89.0999984741211 -9.611000061035156 0 -1
78.4000015258789 88.5 -9.567999839782715 0 -1
79.69999694824219 83.30000305175781 -8.949999809265137 0 -1
74.5999984741211 88.19999694824219 -9.571000099182129 0 -1
74 85.30000305175781 -7.98799991607666 1 -1
75.9000015258789 89.5999984741211 -9.390000343322754 0 -1
73.30000305175781 89.4000015258789 -9.817000389099121 0 -1
74.4000015258789 85.80000305175781 -6.906000137329102 1 -1
79.5 89.19999694824219 -8.972999572753906 0 -1
74.69999694824219 83.0999984741211 -4.855999946594238 1 -1
74.0999984741211 82.4000015258789 -7.802000045776367 1 -1
73.30000305175781 89.30000305175781 -9.800000190734863 0 -1
75.19999694824219 87.0999984741211 -9.829000473022461 0 -1
80 85.9000015258789 -9.289999961853027 0 -1
75.9000015258789 89.69999694824219 -9.095999717712402 0 -1
77.69999694824219 85.4000015258789 -9.833000183105469 0 -1
79.69999694824219 83.19999694824219 -9.170999526977539 0 -1
79.9000015258789 88.19999694824219 -9.142000198364258 0 -1
75.69999694824219 86.80000305175781 -9.494000434875488 0 -1
74.4000015258789 86 -8.024999618530273 1 -1
76.4000015258789 85.5999984741211 -10.194999694824219 0 -1
78.9000015258789 86.19999694824219 -9.350000381469727 0 -1
75.30000305175781 82 -3.8399999141693115 1 -1
80 85.0999984741211 -8.892999649047852 0 -1
76.80000305175781 82.9000015258789 -7.288000106811523 1 -1
79.5999984741211 82.80000305175781 -9.307999610900879 0 -1
76.19999694824219 87.19999694824219 -9.519000053405762 0 -1
79 89.19999694824219 -9.312000274658203 0 -1
74.5 89.5 -9.406999588012695 0 -1
75.80000305175781 82.69999694824219 -7.374000072479248 1 -1
74.5999984741211 88.30000305175781 -9.508000373840332 0 -1
74 85.4000015258789 -8.111000061035156 1 -1
79.0999984741211 88.0999984741211 -9.918999671936035 0 -1
76.9000015258789 85.69999694824219 -9.989999771118164 0 -1
74.4000015258789 85.9000015258789 -6.936999797821045 1 -1
74.19999694824219 87.4000015258789 -9.597000122070312 0 -1
79.5 89.0999984741211 -9.027000427246094 0 -1
77.19999694824219 89.30000305175781 -9.319999694824219 0 -1
78.9000015258789 86.9000015258789 -9.64799976348877 0 -1
77.69999694824219 85.30000305175781 -9.942000389099121 0 -1
76.69999694824219 89.19999694824219 -9.32699966430664 0 -1
79.4000015258789 84 -9.322999954223633 0 -1
79 90 -7.438000202178955 1 -1
77.30000305175781 88.9000015258789 -9.52400016784668 0 -1
79.30000305175781 85.19999694824219 -9.574999809265137 0 -1
75.0999984741211 84 -7.392000198364258 1 -1
79.9000015258789 88.30000305175781 -9.180000305175781 0 -1
75.69999694824219 86.69999694824219 -9.460000038146973 0 -1
76.19999694824219 87.4000015258789 -9.574000358581543 0 -1
74.0999984741211 82.19999694824219 -7.802000045776367 1 -1
78.4000015258789 88.0999984741211 -9.996000289916992 0 -1
79.69999694824219 83.69999694824219 -8.805999755859375 0 -1
78.80000305175781 84.69999694824219 -9.906000137329102 0 -1
75.9000015258789 90 -8.984999656677246 0 -1
75.5 84.80000305175781 -4.263999938964844 1 -1
79.30000305175781 85.30000305175781 -9.572999954223633 0 -1
80 85 -8.930000305175781 0 -1
74.19999694824219 87.30000305175781 -9.524999618530273 0 -1
76.80000305175781 82.80000305175781 -7.289999961853027 1 -1
74.0999984741211 82.30000305175781 -7.860000133514404 1 -1
77.19999694824219 89.0999984741211 -9.319999694824219 0 -1
77.30000305175781 89 -9.293999671936035 0 -1
74.5999984741211 83.80000305175781 -7.366000175476074 1 -1
79.69999694824219 83.5999984741211 -8.878000259399414 0 -1
76.19999694824219 87.30000305175781 -9.588000297546387 0 -1
77.9000015258789 86.0999984741211 -9.477999687194824 0 -1
73.30000305175781 89.19999694824219 -9.817000389099121 0 -1
79.9000015258789 88.0999984741211 -9.180000305175781 0 -1
74 85.5 -8.144000053405762 1 -1
75.0999984741211 86 -7.946000099182129 1 -1
75.0999984741211 85.9000015258789 -7.738999843597412 1 -1
75.80000305175781 82.80000305175781 -7.38100004196167 1 -1
73.30000305175781 89.0999984741211 -9.833999633789062 0 -1
76.69999694824219 89.30000305175781 -9.157999992370605 0 -1
78.9000015258789 86.80000305175781 -9.574999809265137 0 -1
75.9000015258789 89.9000015258789 -8.89900016784668 0 -1
77.69999694824219 85.19999694824219 -9.906000137329102 0 -1
76.4000015258789 85.69999694824219 -10.189000129699707 0 -1
74 84.5 -6.935999870300293 1 -1
75.69999694824219 86.5999984741211 -9.560999870300293 0 -1
74.69999694824219 88.9000015258789 -9.531000137329102 0 -1
79.5 90 -7.3379998207092285 1 -1
76.19999694824219 87.5 -9.588000297546387 0 -1
75.5 84.9000015258789 -4.23799991607666 1 -1
75.19999694824219 87 -9.812000274658203 0 -1
79.4000015258789 84.9000015258789 -9.458999633789062 0 -1
74.4000015258789 84 -3.7720000743865967 1 -1
77.80000305175781 82.9000015258789 -7.861000061035156 1 -1
74.0999984741211 83.5999984741211 -7.827000141143799 1 -1
79 89.9000015258789 -7.7789998054504395 1 -1
79.0999984741211 88.19999694824219 -9.939000129699707 0 -1
74.69999694824219 89 -9.532999992370605 0 -1
77.19999694824219 89.19999694824219 -9.281000137329102 0 -1
76.9000015258789 85.5999984741211 -9.958999633789062 0 -1
77.9000015258789 86.4000015258789 -9.369999885559082 0 -1
74.5999984741211 83.9000015258789 -7.364999771118164 1 -1
76.80000305175781 82.69999694824219 -7.288000106811523 1 -1
79.4000015258789 84.80000305175781 -9.46500015258789 0 -1
75.30000305175781 82.0999984741211 -4.179999828338623 1 -1
77.30000305175781 88.0999984741211 -9.861000061035156 0 -1
76.69999694824219 89.9000015258789 -8.961999893188477 0 -1
78.9000015258789 87 -9.70300006866455 0 -1
74.0999984741211 83.69999694824219 -6.945000171661377 1 -1
79.0999984741211 88.30000305175781 -9.612000465393066 0 -1
76.9000015258789 85.4000015258789 -10.07699966430664 0 -1
77.19999694824219 90 -8.741000175476074 0 -1
77.9000015258789 86.5 -9.406000137329102 0 -1
75.19999694824219 86.80000305175781 -9.906000137329102 0 -1
78.4000015258789 88.19999694824219 -9.97700023651123 0 -1
78.80000305175781 84.5999984741211 -9.848999977111816 0 -1
74.19999694824219 86.69999694824219 -9.918000221252441 0 -1
75.80000305175781 82.9000015258789 -7.374000072479248 1 -1
73.4000015258789 83.80000305175781 -7.958000183105469 1 -1
75.69999694824219 86.5 -9.527999877929688 0 -1
72.80000305175781 88.9000015258789 -9.779000282287598 0 -1
79.30000305175781 85.4000015258789 -9.57800006866455 0 -1
74 84.5999984741211 -7.638999938964844 1 -1
79.69999694824219 83.5 -8.805999755859375 0 -1
74.4000015258789 84.19999694824219 -3.7720000743865967 1 -1
77.80000305175781 82.69999694824219 -7.861000061035156 1 -1
78.80000305175781 84.5 -9.734000205993652 0 -1
74.5 82.5999984741211 -7.375 1 -1
74.19999694824219 86.5999984741211 -9.972000122070312 0 -1
77.69999694824219 85.0999984741211 -9.942000389099121 0 -1
79.5 89.9000015258789 -7.686999797821045 1 -1
78.4000015258789 88.30000305175781 -9.996000289916992 0 -1
75.19999694824219 86.9000015258789 -9.836000442504883 0 -1
74.0999984741211 83.5 -7.815000057220459 1 -1
79.9000015258789 88.5 -9.027999877929688 0 -1
75.30000305175781 82.80000305175781 -3.9730000495910645 1 -1
79.30000305175781 85.5 -9.579999923706055 0 -1
74.4000015258789 84.0999984741211 -3.931999921798706 1 -1
75.0999984741211 85.80000305175781 -7.775000095367432 1 -1
74.5 82.80000305175781 -7.375 1 -1
77.9000015258789 86.30000305175781 -9.406000137329102 0 -1
73.30000305175781 89 -9.88599967956543 0 -1
75.5 84 -3.8299999237060547 1 -1
76.9000015258789 85.5 -9.979999542236328 0 -1
79.4000015258789 84.69999694824219 -9.47599983215332 0 -1
73.30000305175781 88.9000015258789 -9.869000434875488 0 -1
78.9000015258789 86.5999984741211 -9.218000411987305 0 -1
75.30000305175781 82.69999694824219 -3.9200000762939453 1 -1
74.69999694824219 88.5999984741211 -9.411999702453613 0 -1
76.69999694824219 90 -8.722999572753906 0 -1
75.0999984741211 85.69999694824219 -7.39900016784668 1 -1
75.69999694824219 86.4000015258789 -9.560999870300293 0 -1
77.80000305175781 82.80000305175781 -7.864999771118164 1 -1
79 89.80000305175781 -7.714000225067139 1 -1
72.80000305175781 89 -9.682000160217285 0 -1
74.5999984741211 83.5 -4.683000087738037 1 -1
74 84.69999694824219 -7.673999786376953 1 -1
74.4000015258789 84.30000305175781 -3.8320000171661377 1 -1
75.19999694824219 86.69999694824219 -9.920000076293945 0 -1
80 85.5 -9.215999603271484 0 -1
74.69999694824219 88.69999694824219 -9.526000022888184 0 -1
77.69999694824219 85 -9.95300006866455 0 -1
79.5 89.80000305175781 -7.3379998207092285 1 -1
76.4000015258789 85.4000015258789 -10.194999694824219 0 -1
75.30000305175781 82.9000015258789 -4.260000228881836 1 -1
76.9000015258789 85.30000305175781 -10.0649995803833 0 -1
77.69999694824219 86 -9.454000473022461 0 -1
76.19999694824219 87.5999984741211 -9.545999526977539 0 -1
77.30000305175781 88.19999694824219 -9.878000259399414 0 -1
77.19999694824219 89.9000015258789 -8.901000022888184 0 -1
75.9000015258789 89.30000305175781 -9.430999755859375 0 -1
75.5 84.0999984741211 -3.9809999465942383 1 -1
76.4000015258789 85.5 -10.192999839782715 0 -1
79.69999694824219 83.9000015258789 -9.269000053405762 0 -1
79.0999984741211 88.4000015258789 -9.583000183105469 0 -1
73.4000015258789 83.9000015258789 -6.942999839782715 1 -1
74.19999694824219 87 -9.741000175476074 0 -1
77.30000305175781 88.30000305175781 -9.630000114440918 0 -1
77.9000015258789 86.69999694824219 -9.272000312805176 0 -1
77.4000015258789 84.5999984741211 -10.125 0 -1
74.0999984741211 83.9000015258789 -7.800000190734863 1 -1
79 89.5999984741211 -8.989999771118164 0 -1
78.80000305175781 84.4000015258789 -9.675999641418457 0 -1
74.5 82.69999694824219 -7.293000221252441 1 -1
79.30000305175781 85.5999984741211 -9.57800006866455 0 -1
78.4000015258789 88.9000015258789 -9.361000061035156 0 -1
72.80000305175781 88.5999984741211 -9.821000099182129 0 -1
79.0999984741211 88.5 -9.612000465393066 0 -1
75.9000015258789 89.0999984741211 -9.512999534606934 0 -1
76.19999694824219 87.80000305175781 -9.512999534606934 0 -1
74.5999984741211 83.5999984741211 -4.769000053405762 1 -1
79.69999694824219 83.80000305175781 -9.013999938964844 0 -1
79.9000015258789 88.4000015258789 -9.065999984741211 0 -1
78.80000305175781 84.30000305175781 -9.734000205993652 0 -1
76.69999694824219 89.5999984741211 -9.01099967956543 0 -1
74 84.80000305175781 -7.638999938964844 1 -1
78.4000015258789 89 -9.319999694824219 0 -1
74.5 82.9000015258789 -7.126999855041504 1 -1
79.5 89.69999694824219 -7.686999797821045 1 -1
79.4000015258789 84.5999984741211 -9.480999946594238 0 -1
76.19999694824219 87.69999694824219 -9.531999588012695 0 -1
78.9000015258789 86.69999694824219 -9.152000427246094 0 -1
75.5 84.19999694824219 -4.2230000495910645 1 -1
73.30000305175781 88.80000305175781 -9.88599967956543 0 -1
77.69999694824219 85.9000015258789 -9.505000114440918 0 -1
75.69999694824219 86.30000305175781 -10.064000129699707 0 -1
75.9000015258789 89.19999694824219 -9.553999900817871 0 -1
79.9000015258789 87.69999694824219 -9.619000434875488 0 -1
75.0999984741211 85.5999984741211 -7.6519999504089355 1 -1
75.30000305175781 82.5 -3.9200000762939453 1 -1
77.4000015258789 84.69999694824219 -10.156000137329102 0 -1
79.4000015258789 84.5 -9.35099983215332 0 -1
79 89.69999694824219 -8.925000190734863 0 -1
74.69999694824219 88.80000305175781 -9.52299976348877 0 -1
73.4000015258789 83.5 -7.695000171661377 1 -1
72.80000305175781 88.69999694824219 -9.85099983215332 0 -1
74.5999984741211 83.69999694824219 -6.836999893188477 1 -1
76.19999694824219 87.9000015258789 -9.491999626159668 0 -1
76.9000015258789 85.19999694824219 -10.07699966430664 0 -1
79.0999984741211 83.5 -9.229999542236328 0 -1
77.19999694824219 89.80000305175781 -8.847999572753906 0 -1
76.69999694824219 89.69999694824219 -8.961999893188477 0 -1
74.4000015258789 84.4000015258789 -3.8469998836517334 1 -1
74 84.9000015258789 -7.933000087738037 1 -1
79.5 89.5999984741211 -8.484000205993652 1 -1
79.30000305175781 85.69999694824219 -9.579999923706055 0 -1
79.69999694824219 88.30000305175781 -9.286999702453613 0 -1
75.19999694824219 86.5999984741211 -9.946000099182129 0 -1
75.9000015258789 89.5 -9.430999755859375 0 -1
74.5999984741211 83.19999694824219 -5.144000053405762 1 -1
75.5 84.30000305175781 -4.145999908447266 1 -1
74.19999694824219 86.9000015258789 -9.8100004196167 0 -1
77.30000305175781 88.4000015258789 -9.604000091552734 0 -1
77.69999694824219 85.80000305175781 -9.567000389099121 0 -1
75.69999694824219 86.19999694824219 -10.11299991607666 0 -1
79.9000015258789 87.80000305175781 -9.315999984741211 0 -1
77.19999694824219 89.5999984741211 -9.072999954223633 0 -1
78.4000015258789 88.5999984741211 -9.508999824523926 0 -1
78.80000305175781 84.19999694824219 -9.675999641418457 0 -1
79.4000015258789 85.5 -9.527999877929688 0 -1
73.4000015258789 83.69999694824219 -7.9120001792907715 1 -1
74.19999694824219 86.80000305175781 -9.972000122070312 0 -1
77.30000305175781 88.5 -9.630000114440918 0 -1
79.69999694824219 88.19999694824219 -9.333999633789062 0 -1
79.5999984741211 83.5999984741211 -9.064000129699707 0 -1
78.9000015258789 85.30000305175781 -9.788999557495117 0 -1
79.30000305175781 85.80000305175781 -9.479999542236328 0 -1
73.9000015258789 85.4000015258789 -8.027000427246094 1 -1
74.4000015258789 84.5999984741211 -3.8469998836517334 1 -1
77.4000015258789 84.80000305175781 -10.125 0 -1
79.4000015258789 85.4000015258789 -9.52299976348877 0 -1
76.69999694824219 89.80000305175781 -8.868000030517578 0 -1
75.0999984741211 85.5 -7.90500020980835 1 -1
75.19999694824219 86.4000015258789 -9.946000099182129 0 -1
73.30000305175781 88.69999694824219 -9.904999732971191 0 -1
78.4000015258789 88.69999694824219 -9.442000389099121 0 -1
79.5 88.5 -9.286999702453613 0 -1
77.9000015258789 86.5999984741211 -9.369999885559082 0 -1
74.0999984741211 83.80000305175781 -7.827000141143799 1 -1
75.80000305175781 82.30000305175781 -7.336999893188477 1 -1
79.5999984741211 83.69999694824219 -9.013999938964844 0 -1
74.4000015258789 84.5 -3.8320000171661377 1 -1
72.80000305175781 88.80000305175781 -9.821000099182129 0 -1
74.69999694824219 88.4000015258789 -9.411999702453613 0 -1
79.9000015258789 87.5999984741211 -9.61299991607666 0 -1
75.0999984741211 85.4000015258789 -7.6519999504089355 1 -1
75.19999694824219 86.5 -9.920000076293945 0 -1
73.30000305175781 88.5999984741211 -9.932999610900879 0 -1
75.5 84.4000015258789 -4.2870001792907715 1 -1
77.69999694824219 85.69999694824219 -9.795999526977539 0 -1
75.69999694824219 86.0999984741211 -10.097000122070312 0 -1
74.5999984741211 83.30000305175781 -4.683000087738037 1 -1
75.9000015258789 89.4000015258789 -9.390000343322754 0 -1
74 84 -7.9720001220703125 1 -1
76.19999694824219 88 -9.512999534606934 0 -1
78.9000015258789 85.5 -9.788999557495117 0 -1
74.69999694824219 88.5 -9.435999870300293 0 -1
77.19999694824219 89.69999694824219 -8.901000022888184 0 -1
73.4000015258789 83.5999984741211 -7.669000148773193 1 -1
74.0999984741211 83.0999984741211 -8.324999809265137 1 -1
79.5999984741211 83.5 -9.208000183105469 0 -1
73.4000015258789 83.30000305175781 -7.748000144958496 1 -1
76.30000305175781 85.5999984741211 -10.192999839782715 0 -1
76.5 83.80000305175781 -7.235000133514404 1 -1
77.19999694824219 86.4000015258789 -9.463000297546387 0 -1
79.0999984741211 83.5999984741211 -9.309000015258789 0 -1
74.4000015258789 84.69999694824219 -3.809000015258789 1 -1
72.80000305175781 88.4000015258789 -9.940999984741211 0 -1
79.5 88.4000015258789 -9.381999969482422 0 -1
77.30000305175781 87.5999984741211 -9.869999885559082 0 -1
75.30000305175781 82.5999984741211 -3.9730000495910645 1 -1
79.0999984741211 83.69999694824219 -9.279999732971191 0 -1
75.19999694824219 86.30000305175781 -9.972000122070312 0 -1
74.19999694824219 86.19999694824219 -10.142999649047852 0 -1
79.69999694824219 88.0999984741211 -9.37600040435791 0 -1
75.80000305175781 82.4000015258789 -7.3520002365112305 1 -1
74.5999984741211 83.4000015258789 -4.769000053405762 1 -1
78.4000015258789 88.80000305175781 -9.482000350952148 0 -1
77.69999694824219 85.5999984741211 -9.833000183105469 0 -1
76.80000305175781 85.69999694824219 -9.9350004196167 0 -1
79.30000305175781 85.9000015258789 -9.461999893188477 0 -1
74 84.0999984741211 -6.986999988555908 1 -1
76.69999694824219 88.4000015258789 -9.559000015258789 0 -1
73.9000015258789 85.30000305175781 -7.806000232696533 1 -1
76.9000015258789 82.9000015258789 -7.181000232696533 1 -1
79.30000305175781 86 -9.442999839782715 0 -1
78.9000015258789 85.4000015258789 -9.781000137329102 0 -1
75.9000015258789 82.5999984741211 -7.336999893188477 1 -1
75.69999694824219 88 -9.942000389099121 0 -1
75.80000305175781 89.5999984741211 -9.12600040435791 0 -1
78.9000015258789 85.0999984741211 -9.77299976348877 0 -1
75.30000305175781 83.30000305175781 -3.872999906539917 1 -1
74.19999694824219 86.0999984741211 -10.128000259399414 0 -1
74.0999984741211 83 -8.404000282287598 1 -1
79.4000015258789 85.30000305175781 -9.508999824523926 0 -1
79.9000015258789 88 -9.204000473022461 0 -1
73.4000015258789 83.19999694824219 -7.952000141143799 1 -1
73.30000305175781 88.5 -9.904999732971191 0 -1
73.9000015258789 85.19999694824219 -7.98799991607666 1 -1
77.19999694824219 86.5 -9.420000076293945 0 -1
78.4000015258789 89.4000015258789 -9.17300033569336 0 -1
77.9000015258789 86.80000305175781 -9.232000350952148 0 -1
79.4000015258789 85.19999694824219 -9.513999938964844 0 -1
75.0999984741211 85.30000305175781 -7.90500020980835 1 -1
74.69999694824219 88.0999984741211 -9.550999641418457 0 -1
75.30000305175781 83.19999694824219 -4.978000164031982 1 -1
72.80000305175781 88.5 -9.85099983215332 0 -1
79.5 88.30000305175781 -9.416999816894531 0 -1
74.5999984741211 83 -7.178999900817871 1 -1
75.19999694824219 86.19999694824219 -9.998000144958496 0 -1
79.5999984741211 83.9000015258789 -9.277999877929688 0 -1
73.30000305175781 88.4000015258789 -9.989999771118164 0 -1
74.4000015258789 84.80000305175781 -4.7210001945495605 1 -1
77.4000015258789 84.9000015258789 -10.217000007629395 0 -1
78.80000305175781 86 -9.614999771118164 0 -1
