VERSION .7
FIELDS x y z label object
SIZE 4 4 4 4 4
TYPE F F F I I
COUNT 1 1 1 1 1
WIDTH 896
HEIGHT 1
POINTS 896
VIEWPOINT 0 0 0 1 0 0 0
DATA ascii
73.69999694824219 88.9000015258789 -8.4399995803833 0 -1
78.69999694824219 77.69999694824219 -10.154999732971191 0 -1
80 73.80000305175781 12.35099983215332 1 -1
72.19999694824219 81.0999984741211 -11.0600004196167 0 -1
74.4000015258789 80.4000015258789 -10.920999526977539 0 -1
75.19999694824219 86.80000305175781 -9.824999809265137 0 -1
76.0999984741211 72.5999984741211 14.543999671936035 1 -1
76.30000305175781 85.0999984741211 -10.824999809265137 0 -1
71.69999694824219 84.0999984741211 -9.38599967956543 1 -1
73.0999984741211 82.9000015258789 -8.86299991607666 1 -1
75.69999694824219 77.5999984741211 -10.755999565124512 0 -1
74.9000015258789 82.5 -10.866999626159668 0 -1
71.0999984741211 79.69999694824219 -10.993000030517578 0 -1
74.69999694824219 84.5999984741211 -10.791000366210938 0 -1
74.5999984741211 89.69999694824219 -7.939000129699707 0 -1
78.9000015258789 89.5999984741211 -8.810999870300293 0 -1
72.0999984741211 81.9000015258789 -8.425999641418457 1 -1
75 78.69999694824219 -10.946000099182129 0 -1
76.69999694824219 89.80000305175781 -8.651000022888184 0 -1
78.80000305175781 85 -10.97599983215332 0 -1
71.5 89.0999984741211 -7.855999946594238 0 -1
79.19999694824219 79.30000305175781 -10.708999633789062 0 -1
79.0999984741211 77.19999694824219 -10.397000312805176 0 -1
78.30000305175781 89.9000015258789 -8.46500015258789 0 -1
73.4000015258789 71.69999694824219 14.555999755859375 1 -1
73 72.0999984741211 14.555000305175781 1 -1
71.0999984741211 74 13.480999946594238 1 -1
77 79.80000305175781 -10.944999694824219 0 -1
72.69999694824219 81.69999694824219 -10.913999557495117 0 -1
71.4000015258789 89 -8.878000259399414 0 -1
73.19999694824219 87.80000305175781 -8.991000175476074 0 -1
75.19999694824219 86.9000015258789 -9.881999969482422 0 -1
76.19999694824219 78.69999694824219 -10.847000122070312 0 -1
77.80000305175781 89.30000305175781 -8.524999618530273 0 -1
76.5 78.0999984741211 -10.586999893188477 0 -1
71.80000305175781 78.80000305175781 -10.977999687194824 0 -1
71.30000305175781 83.69999694824219 -9.496999740600586 1 -1
77.19999694824219 88.9000015258789 -8.807999610900879 0 -1
78.5 73.9000015258789 13.53600025177002 1 -1
74.5 86.80000305175781 -9.89900016784668 0 -1
78.5999984741211 83.30000305175781 -8.590999603271484 1 -1
77.4000015258789 84.5999984741211 -11.003000259399414 0 -1
73.30000305175781 80.0999984741211 -10.949000358581543 0 -1
74.0999984741211 74.19999694824219 13.487000465393066 1 -1
74.80000305175781 80.4000015258789 -10.869999885559082 0 -1
75.9000015258789 81.30000305175781 -10.927000045776367 0 -1
76 74.19999694824219 12.340999603271484 1 -1
75.5999984741211 84.69999694824219 -10.86400032043457 0 -1
71.5 89.19999694824219 -7.769999980926514 0 -1
73.30000305175781 79.9000015258789 -10.989999771118164 0 -1
71.9000015258789 89.5999984741211 -6.810999870300293 0 -1
79.0999984741211 77.30000305175781 -10.342000007629395 0 -1
75.0999984741211 82.30000305175781 -10.88700008392334 0 -1
71.69999694824219 84.30000305175781 -9.609000205993652 1 -1
77.9000015258789 85.69999694824219 -10.54800033569336 0 -1
73 90 -7.706999778747559 0 -1
71.19999694824219 79.0999984741211 -10.982999801635742 0 -1
78.9000015258789 89.80000305175781 -8.711000442504883 0 -1
78.30000305175781 74.0999984741211 13.692999839782715 1 -1
76.0999984741211 89.5 -8.189000129699707 0 -1
75.5 73.9000015258789 13.527000427246094 1 -1
79.5 75.30000305175781 13.444999694824219 1 -1
72 85.5999984741211 -10.727999687194824 0 -1
72.80000305175781 83 -10.170999526977539 1 -1
76.80000305175781 84.69999694824219 -10.942000389099121 0 -1
75.5 79.19999694824219 -10.968999862670898 0 -1
78.5999984741211 83.19999694824219 -8.586000442504883 1 -1
78.0999984741211 72.80000305175781 14.532999992370605 1 -1
73.19999694824219 87.5999984741211 -9.319000244140625 0 -1
71 86.30000305175781 -10.569999694824219 0 -1
75.9000015258789 81.4000015258789 -10.847000122070312 0 -1
78.30000305175781 90 -8.27299976348877 0 -1
72.5 79.4000015258789 -10.986000061035156 0 -1
76.4000015258789 88.4000015258789 -9.104000091552734 0 -1
77.19999694824219 71 14.592000007629395 1 -1
74.4000015258789 80.5 -10.92300033569336 0 -1
75.69999694824219 77 -10.597999572753906 0 -1
76.30000305175781 85 -10.843999862670898 0 -1
73.0999984741211 82.80000305175781 -8.795000076293945 1 -1
74.5 87 -9.833000183105469 0 -1
73.5 88.0999984741211 -8.95300006866455 0 -1
71.0999984741211 79.5999984741211 -10.993000030517578 0 -1
77.80000305175781 89.0999984741211 -8.798999786376953 0 -1
75.19999694824219 86.19999694824219 -9.927000045776367 0 -1
76.9000015258789 89.5 -8.579999923706055 0 -1
78.80000305175781 85.0999984741211 -10.967000007629395 0 -1
77.69999694824219 87.9000015258789 -9.553000450134277 0 -1
76.4000015258789 71.4000015258789 14.529999732971191 1 -1
80 74.19999694824219 12.621999740600586 1 -1
75.4000015258789 87.0999984741211 -9.62399959564209 0 -1
79 78 -10.178999900817871 0 -1
76.5999984741211 89 -8.873000144958496 0 -1
77.5 78.69999694824219 -10.508999824523926 0 -1
77.30000305175781 77.4000015258789 -10.484999656677246 0 -1
71.0999984741211 74.0999984741211 13.491999626159668 1 -1
76.5 78.19999694824219 -10.649999618530273 0 -1
76.4000015258789 88.5 -9.064000129699707 0 -1
72.0999984741211 81.5 -8.880999565124512 1 -1
73.4000015258789 71.80000305175781 14.562000274658203 1 -1
78 78 -10.098999977111816 0 -1
78.80000305175781 85.4000015258789 -10.569000244140625 0 -1
71.30000305175781 83.5999984741211 -9.48900032043457 1 -1
76.19999694824219 78.5999984741211 -10.807999610900879 0 -1
77.80000305175781 89.19999694824219 -8.732999801635742 0 -1
75.0999984741211 82.5999984741211 -10.869000434875488 0 -1
72.30000305175781 74 13.585000038146973 1 -1
78.19999694824219 76.69999694824219 -10.618000030517578 0 -1
77.4000015258789 84.69999694824219 -10.984000205993652 0 -1
78.4000015258789 72.80000305175781 14.515999794006348 1 -1
78.5 73.80000305175781 13.512999534606934 1 -1
71.5999984741211 80.69999694824219 -8.777999877929688 1 -1
75.9000015258789 81.19999694824219 -10.92199993133545 0 -1
72.5 79.5999984741211 -10.928999900817871 0 -1
73.5999984741211 85.69999694824219 -10.211999893188477 0 -1
71.80000305175781 78.4000015258789 -10.89900016784668 0 -1
74.4000015258789 80.30000305175781 -10.913999557495117 0 -1
77.9000015258789 85.5999984741211 -10.680999755859375 0 -1
78.69999694824219 77.5999984741211 -10.229999542236328 0 -1
76.4000015258789 71.30000305175781 14.545000076293945 1 -1
77.30000305175781 77.5 -10.522000312805176 0 -1
79.30000305175781 84 -10.85099983215332 0 -1
71.9000015258789 89.69999694824219 -6.724999904632568 0 -1
76.0999984741211 89.4000015258789 -8.380000114440918 0 -1
73 89.9000015258789 -7.915999889373779 0 -1
71.5 89.5 -6.854000091552734 0 -1
79.5 75.4000015258789 13.430000305175781 1 -1
72.30000305175781 74.0999984741211 13.536999702453613 1 -1
72.19999694824219 81 -11.064000129699707 0 -1
79.0999984741211 76.80000305175781 -10.369000434875488 0 -1
74.9000015258789 82.4000015258789 -10.869000434875488 0 -1
74.80000305175781 80.30000305175781 -10.906000137329102 0 -1
74.5999984741211 89.80000305175781 -7.868000030517578 0 -1
78.30000305175781 74 13.237000465393066 1 -1
78.4000015258789 86.80000305175781 -9.994000434875488 0 -1
79 78.19999694824219 -10.175999641418457 0 -1
76.30000305175781 85.19999694824219 -10.4350004196167 0 -1
72.80000305175781 83.0999984741211 -10.532999992370605 1 -1
71.19999694824219 79.19999694824219 -10.982999801635742 0 -1
76.69999694824219 89.69999694824219 -8.687999725341797 0 -1
73.5 88.30000305175781 -8.95300006866455 0 -1
74.69999694824219 84.69999694824219 -10.770000457763672 0 -1
71.80000305175781 78.5 -10.895000457763672 0 -1
75.5 79.30000305175781 -10.906000137329102 0 -1
76.80000305175781 84.5999984741211 -10.970999717712402 0 -1
78.5999984741211 83.0999984741211 -8.53600025177002 1 -1
78.0999984741211 73.0999984741211 14.534000396728516 1 -1
80 74 12.310999870300293 1 -1
76.19999694824219 78.80000305175781 -10.885000228881836 0 -1
73.0999984741211 82.69999694824219 -8.86299991607666 1 -1
77 79.69999694824219 -10.932999610900879 0 -1
72.69999694824219 81.80000305175781 -10.920999526977539 0 -1
74.5999984741211 89.9000015258789 -7.939000129699707 0 -1
78.4000015258789 86.9000015258789 -9.972000122070312 0 -1
75.5999984741211 84.30000305175781 -10.949999809265137 0 -1
76.69999694824219 89.5999984741211 -8.651000022888184 0 -1
79.0999984741211 76.9000015258789 -10.390000343322754 0 -1
72.19999694824219 80.9000015258789 -11.0600004196167 0 -1
73.5 88.19999694824219 -8.892000198364258 0 -1
79.5 81.30000305175781 -11.005000114440918 0 -1
79 78.0999984741211 -10.178000450134277 0 -1
71.30000305175781 83.5 -9.531999588012695 1 -1
77.80000305175781 89 -8.866000175476074 0 -1
77.5 78.5999984741211 -10.461000442504883 0 -1
73.69999694824219 89 -8.380000114440918 0 -1
74.5 86.5999984741211 -9.940999984741211 0 -1
71 86.4000015258789 -10.491000175476074 0 -1
71.0999984741211 74.19999694824219 13.503000259399414 1 -1
76.5999984741211 88.9000015258789 -8.928999900817871 0 -1
78 79.69999694824219 -10.913999557495117 0 -1
76.5 78.30000305175781 -10.670999526977539 0 -1
78.80000305175781 85.5 -10.630999565124512 0 -1
78.0999984741211 73.19999694824219 14.534000396728516 1 -1
71.0999984741211 79.5 -10.991999626159668 0 -1
72.69999694824219 81.9000015258789 -10.927000045776367 0 -1
73.30000305175781 80.30000305175781 -10.979999542236328 0 -1
78.9000015258789 89.9000015258789 -8.66100025177002 0 -1
72 85.69999694824219 -10.710000038146973 0 -1
78.30000305175781 73.9000015258789 13.53600025177002 1 -1
72.0999984741211 81.5999984741211 -8.598999977111816 1 -1
73.5 88.4000015258789 -8.892000198364258 0 -1
79.69999694824219 76.9000015258789 13.475000381469727 1 -1
77.4000015258789 85.30000305175781 -10.76099967956543 0 -1
72.80000305175781 83.30000305175781 -10.774999618530273 0 -1
78.4000015258789 72.69999694824219 14.520999908447266 1 -1
79.30000305175781 71.9000015258789 14.581999778747559 1 -1
72.5 79.5 -10.918000221252441 0 -1
71.5 89.4000015258789 -7.5970001220703125 0 -1
79.5 75.5 13.449999809265137 1 -1
71.9000015258789 89.80000305175781 -6.638999938964844 0 -1
71.4000015258789 88.9000015258789 -7.815999984741211 0 -1
79.19999694824219 78.9000015258789 -10.598999977111816 0 -1
79 78.30000305175781 -10.175000190734863 0 -1
73 89.80000305175781 -7.8470001220703125 0 -1
76.9000015258789 89.4000015258789 -8.836000442504883 0 -1
76.80000305175781 84.5 -10.986000061035156 0 -1
71.19999694824219 79.30000305175781 -10.979000091552734 0 -1
77.69999694824219 86.19999694824219 -10.430999755859375 0 -1
74.80000305175781 80.19999694824219 -10.902000427246094 0 -1
75.4000015258789 87.19999694824219 -9.678999900817871 0 -1
71.69999694824219 84.4000015258789 -9.883999824523926 1 -1
74.9000015258789 82.30000305175781 -10.873000144958496 0 -1
75.5999984741211 84.4000015258789 -10.949000358581543 0 -1
78.4000015258789 72.5999984741211 14.515999794006348 1 -1
74.69999694824219 84.80000305175781 -10.718999862670898 0 -1
77.19999694824219 89 -8.73799991607666 0 -1
75.5999984741211 71.69999694824219 14.574999809265137 1 -1
72.19999694824219 81.4000015258789 -10.512999534606934 1 -1
78.80000305175781 85.30000305175781 -10.967000007629395 0 -1
77.5 81.0999984741211 -10.467000007629395 1 -1
72.80000305175781 83.19999694824219 -10.654000282287598 1 -1
76.30000305175781 84.80000305175781 -10.843999862670898 0 -1
78.0999984741211 73 14.534000396728516 1 -1
77.9000015258789 82.4000015258789 -11.116000175476074 0 -1
72 85.30000305175781 -10.807000160217285 0 -1
73.0999984741211 82.5999984741211 -9.052000045776367 1 -1
71.5999984741211 80.80000305175781 -8.579000473022461 1 -1
80 74.0999984741211 12.291000366210938 1 -1
79.5 74 13.5 1 -1
78.30000305175781 86.0999984741211 -10.449000358581543 0 -1
72.5 79.19999694824219 -10.986000061035156 0 -1
75.0999984741211 82.5 -10.88700008392334 0 -1
77 78 -10.303000450134277 0 -1
73.69999694824219 88.69999694824219 -8.57800006866455 0 -1
71.30000305175781 83.4000015258789 -8.984999656677246 1 -1
75.5 73.80000305175781 13.737000465393066 1 -1
76.4000015258789 89.5999984741211 -8.491000175476074 0 -1
74.9000015258789 82.19999694824219 -10.87600040435791 0 -1
71.0999984741211 74.30000305175781 13.435999870300293 1 -1
71 86.5 -9.996999740600586 0 -1
74.69999694824219 84.9000015258789 -10.70300006866455 0 -1
76.4000015258789 71.19999694824219 14.5600004196167 1 -1
72.19999694824219 81.30000305175781 -11.085000038146973 0 -1
74.4000015258789 80.19999694824219 -10.914999961853027 0 -1
76.5999984741211 88.80000305175781 -8.984999656677246 0 -1
75.69999694824219 77.30000305175781 -10.638999938964844 0 -1
72.69999694824219 80.9000015258789 -11.111000061035156 0 -1
71.4000015258789 88.19999694824219 -9.352999687194824 0 -1
73.5999984741211 85.80000305175781 -9.977999687194824 0 -1
71.0999984741211 79.4000015258789 -10.993000030517578 0 -1
75.19999694824219 86.0999984741211 -9.95199966430664 0 -1
76.80000305175781 87.5 -9.814000129699707 0 -1
79.30000305175781 84.0999984741211 -10.805000305175781 0 -1
73.69999694824219 88.5999984741211 -8.645999908447266 0 -1
72.30000305175781 74.19999694824219 13.520000457763672 1 -1
76.0999984741211 71 14.583999633789062 1 -1
77.30000305175781 78.0999984741211 -10.244999885559082 0 -1
75.4000015258789 87.4000015258789 -9.482000350952148 0 -1
73.19999694824219 88 -8.991000175476074 0 -1
76.4000015258789 89.69999694824219 -8.432000160217285 0 -1
71.69999694824219 84.5999984741211 -9.883999824523926 1 -1
79.9000015258789 78 13.272000312805176 1 -1
79.19999694824219 79.0999984741211 -10.642000198364258 0 -1
76.19999694824219 78.4000015258789 -10.53600025177002 0 -1
77.4000015258789 85.4000015258789 -10.782999992370605 0 -1
71.9000015258789 89.4000015258789 -7.0980000495910645 0 -1
78.30000305175781 73.80000305175781 13.512999534606934 1 -1
80 77.5 13.465999603271484 1 -1
79.30000305175781 84.19999694824219 -10.760000228881836 0 -1
79.69999694824219 76.80000305175781 13.472999572753906 1 -1
76.5 77.4000015258789 -10.79800033569336 0 -1
77.30000305175781 78.19999694824219 -10.201000213623047 0 -1
78.5999984741211 83 -8.545000076293945 1 -1
71.4000015258789 88.30000305175781 -8.994000434875488 0 -1
76.69999694824219 88.5 -9.244999885559082 0 -1
72.30000305175781 74.30000305175781 13.536999702453613 1 -1
72.80000305175781 83.4000015258789 -10.654000282287598 1 -1
74.80000305175781 80.0999984741211 -10.906000137329102 0 -1
74.5999984741211 90 -7.724999904632568 0 -1
72.0999984741211 81.19999694824219 -9.291000366210938 1 -1
71.80000305175781 78.0999984741211 -10.90999984741211 0 -1
72.69999694824219 81 -10.869000434875488 0 -1
75.4000015258789 87.30000305175781 -9.62399959564209 0 -1
73 89.69999694824219 -7.991000175476074 0 -1
79.0999984741211 77 -10.397000312805176 0 -1
77.0999984741211 80.5999984741211 -10.9399995803833 0 -1
79.19999694824219 79 -10.651000022888184 0 -1
77.5 81 -10.961999893188477 0 -1
78.4000015258789 87 -9.968000411987305 0 -1
74.4000015258789 80 -10.914999961853027 0 -1
75.19999694824219 86.4000015258789 -9.927000045776367 0 -1
71.19999694824219 79.4000015258789 -10.972999572753906 0 -1
71.69999694824219 84.5 -9.852999687194824 1 -1
73.0999984741211 82.5 -9.038999557495117 1 -1
77.69999694824219 86.0999984741211 -10.449000358581543 0 -1
74.5 86.69999694824219 -9.791999816894531 0 -1
76.9000015258789 82.5999984741211 -8.104999542236328 1 -1
76.69999694824219 88.4000015258789 -9.515000343322754 0 -1
79.5 74.0999984741211 13.496000289916992 1 -1
78.9000015258789 90 -7.835000038146973 0 -1
71.80000305175781 78.19999694824219 -10.89900016784668 0 -1
78.5999984741211 82.9000015258789 -8.553999900817871 1 -1
79.0999984741211 76.5999984741211 -10.369000434875488 0 -1
77.5999984741211 71.4000015258789 14.583000183105469 1 -1
78.30000305175781 86.19999694824219 -10.414999961853027 0 -1
73.30000305175781 80.19999694824219 -10.946000099182129 0 -1
77.19999694824219 83 -8.295999526977539 1 -1
73.5999984741211 86 -9.918000221252441 0 -1
78 79.80000305175781 -10.965999603271484 0 -1
71 86.5999984741211 -9.930000305175781 0 -1
76.0999984741211 89.30000305175781 -8.444999694824219 0 -1
78.4000015258789 87.0999984741211 -9.920000076293945 0 -1
75.9000015258789 81.0999984741211 -10.927000045776367 0 -1
75.19999694824219 86.5 -9.996000289916992 0 -1
77.9000015258789 82.19999694824219 -7.9019999504089355 1 -1
75.0999984741211 82.9000015258789 -7.1539998054504395 1 -1
71.30000305175781 83.30000305175781 -9.53600025177002 1 -1
75.69999694824219 77.19999694824219 -10.597999572753906 0 -1
73.69999694824219 88.80000305175781 -8.508999824523926 0 -1
71.0999984741211 79.30000305175781 -10.970999717712402 0 -1
75.5 74.19999694824219 13.538999557495117 1 -1
75.4000015258789 87.5 -9.532999992370605 0 -1
71.4000015258789 88.0999984741211 -9.414999961853027 0 -1
75.5999984741211 84 -7.131999969482422 1 -1
75.5 78.9000015258789 -10.918000221252441 0 -1
76.9000015258789 82.5 -8.199999809265137 1 -1
76.80000305175781 87.4000015258789 -9.85200023651123 0 -1
77.0999984741211 80.4000015258789 -10.939000129699707 0 -1
77.4000015258789 85.5 -10.732999801635742 0 -1
71.69999694824219 84.69999694824219 -9.788999557495117 1 -1
71.5999984741211 79.9000015258789 -11.03600025177002 0 -1
77.80000305175781 88.9000015258789 -8.98900032043457 0 -1
74.5 87.4000015258789 -9.513999938964844 0 -1
78.69999694824219 72.5 14.506999969482422 1 -1
76.0999984741211 89.0999984741211 -8.574999809265137 0 -1
71.9000015258789 89.5 -6.896999835968018 0 -1
77.9000015258789 82.30000305175781 -11.118000030517578 0 -1
74.0999984741211 89.5 -8.307000160217285 0 -1
73.19999694824219 87.9000015258789 -8.944000244140625 0 -1
76.5 77.5 -10.8100004196167 0 -1
76.30000305175781 84.9000015258789 -10.824999809265137 0 -1
78.80000305175781 84.69999694824219 -10.815999984741211 0 -1
77.4000015258789 85 -10.96500015258789 0 -1
78.4000015258789 72.5 14.520999908447266 1 -1
76.5999984741211 88.69999694824219 -8.994000434875488 0 -1
74.80000305175781 80 -10.902000427246094 0 -1
74.19999694824219 83.9000015258789 -8.642000198364258 1 -1
75.9000015258789 80.9000015258789 -10.906000137329102 0 -1
72.0999984741211 81.30000305175781 -9.154999732971191 1 -1
72 85.4000015258789 -10.781999588012695 0 -1
72.5 79.30000305175781 -10.986000061035156 0 -1
77.69999694824219 86.5 -9.939000129699707 0 -1
77 77.9000015258789 -10.347999572753906 0 -1
74.5999984741211 88.0999984741211 -8.961000442504883 0 -1
77.5 80.9000015258789 -10.958999633789062 0 -1
74.4000015258789 80.0999984741211 -10.911999702453613 0 -1
73 89.5999984741211 -7.873000144958496 0 -1
71.5 89.80000305175781 -6.870999813079834 0 -1
71.19999694824219 79.5 -10.993000030517578 0 -1
79.5 74.19999694824219 13.491999626159668 1 -1
73.5 88.5 -8.807000160217285 0 -1
71.5999984741211 80.0999984741211 -11.038999557495117 0 -1
79 79.4000015258789 -10.88700008392334 0 -1
73.5999984741211 85.9000015258789 -9.98900032043457 0 -1
74.9000015258789 82.0999984741211 -10.876999855041504 0 -1
78.4000015258789 72.4000015258789 14.519000053405762 1 -1
74.69999694824219 85 -10.685999870300293 0 -1
72.19999694824219 81.19999694824219 -11.064000129699707 0 -1
77.19999694824219 83.0999984741211 -8.293999671936035 1 -1
77.5 81.4000015258789 -10.175999641418457 1 -1
72 85.5 -10.746000289916992 0 -1
75.5 74 13.538999557495117 1 -1
78.30000305175781 86.30000305175781 -10.300000190734863 0 -1
73.80000305175781 80.19999694824219 -10.835000038146973 0 -1
71 86.69999694824219 -9.996999740600586 0 -1
76.19999694824219 78.5 -10.769000053405762 0 -1
75.9000015258789 81 -10.92199993133545 0 -1
76.0999984741211 89.19999694824219 -8.510000228881836 0 -1
77.5999984741211 71.30000305175781 14.581999778747559 1 -1
73 86.5 -9.970999717712402 0 -1
75.0999984741211 82.69999694824219 -7.1539998054504395 1 -1
75.5 79.0999984741211 -10.95199966430664 0 -1
77.9000015258789 82.0999984741211 -8.180000305175781 1 -1
73.0999984741211 85.5 -10.26099967956543 0 -1
80 77.4000015258789 13.519000053405762 1 -1
71.30000305175781 83.19999694824219 -8.984999656677246 1 -1
76.4000015258789 89.80000305175781 -8.404999732971191 0 -1
72.19999694824219 80.5999984741211 -11.069000244140625 0 -1
78.80000305175781 84.5 -10.895000457763672 0 -1
74.9000015258789 82 -10.87600040435791 0 -1
71.0999984741211 79.19999694824219 -10.979000091552734 0 -1
76.80000305175781 87.30000305175781 -9.814000129699707 0 -1
78.4000015258789 87.19999694824219 -9.88599967956543 0 -1
72.30000305175781 74.4000015258789 13.555000305175781 1 -1
77.30000305175781 78.30000305175781 -10.472000122070312 0 -1
75.5999984741211 84.0999984741211 -7.130000114440918 1 -1
75.5 74.0999984741211 13.527000427246094 1 -1
74.69999694824219 85.0999984741211 -10.670000076293945 0 -1
74 86.19999694824219 -9.991000175476074 0 -1
78.0999984741211 72.4000015258789 14.531999588012695 1 -1
75.69999694824219 77.0999984741211 -10.645999908447266 0 -1
74.4000015258789 79.9000015258789 -10.911999702453613 0 -1
72.69999694824219 81.0999984741211 -10.897000312805176 0 -1
75.19999694824219 86.30000305175781 -9.95199966430664 0 -1
71.5 89.5999984741211 -6.870999813079834 0 -1
75.5 79 -10.9350004196167 0 -1
72.69999694824219 81.19999694824219 -10.869000434875488 0 -1
73.30000305175781 81.5999984741211 -10.906000137329102 0 -1
77.0999984741211 80.5 -10.940999984741211 0 -1
73.19999694824219 88.19999694824219 -8.663000106811523 0 -1
72.80000305175781 84.5999984741211 -9.336999893188477 1 -1
79.9000015258789 77.9000015258789 13.435999870300293 1 -1
76.30000305175781 84.5999984741211 -10.989999771118164 0 -1
76.4000015258789 89.9000015258789 -8.42199993133545 0 -1
76 79.30000305175781 -10.87600040435791 0 -1
71.4000015258789 88.5 -8.994000434875488 0 -1
74.0999984741211 89.4000015258789 -8.258999824523926 0 -1
74 86.0999984741211 -9.937999725341797 0 -1
78 79.4000015258789 -10.727999687194824 0 -1
77.80000305175781 88.80000305175781 -9.059000015258789 0 -1
72.0999984741211 81.4000015258789 -9.291000366210938 1 -1
71.80000305175781 78.30000305175781 -10.895000457763672 0 -1
77.4000015258789 85.0999984741211 -10.946000099182129 0 -1
76.0999984741211 71.0999984741211 14.581000328063965 1 -1
74.5 87.30000305175781 -9.57800006866455 0 -1
78.5999984741211 82.80000305175781 -8.557999610900879 1 -1
79.0999984741211 76.69999694824219 -10.37600040435791 0 -1
77.69999694824219 86.4000015258789 -10.369000434875488 0 -1
72.80000305175781 84.5 -9.39900016784668 1 -1
76.5999984741211 88.5999984741211 -9.180000305175781 0 -1
73.5 89.69999694824219 -7.927999973297119 0 -1
78.19999694824219 71.5 14.583000183105469 1 -1
73.19999694824219 88.30000305175781 -8.954999923706055 0 -1
71.5 89.69999694824219 -6.394000053405762 0 -1
75.0999984741211 82.80000305175781 -7.1539998054504395 1 -1
79 79.5999984741211 -11.00100040435791 0 -1
76.9000015258789 82.9000015258789 -8.276000022888184 1 -1
75.4000015258789 84.5999984741211 -10.907999992370605 0 -1
76.69999694824219 88.30000305175781 -9.548999786376953 0 -1
72.0999984741211 80.9000015258789 -11.057000160217285 0 -1
79 79.5 -10.944000244140625 0 -1
73.5999984741211 84 -9.585000038146973 1 -1
72 85 -10.840999603271484 0 -1
74.80000305175781 79.9000015258789 -10.888999938964844 0 -1
77.0999984741211 80.80000305175781 -10.96500015258789 0 -1
77 78.30000305175781 -10.350000381469727 0 -1
78.0999984741211 72.19999694824219 14.520999908447266 1 -1
71.19999694824219 79.5999984741211 -10.993000030517578 0 -1
71.5999984741211 80 -11.034000396728516 0 -1
77.5 81.30000305175781 -10.467000007629395 1 -1
78 79.5999984741211 -10.873000144958496 0 -1
71.69999694824219 84.80000305175781 -9.821000099182129 1 -1
73.5 89.5999984741211 -7.9770002365112305 0 -1
73.80000305175781 80.30000305175781 -10.829999923706055 0 -1
71.9000015258789 89.0999984741211 -7.242000102996826 0 -1
78.5999984741211 82.69999694824219 -8.567999839782715 1 -1
77.5999984741211 71.19999694824219 14.581999778747559 1 -1
77.19999694824219 83.30000305175781 -8.288000106811523 1 -1
73.0999984741211 85.4000015258789 -10.482999801635742 0 -1
80 77.69999694824219 13.442000389099121 1 -1
75.80000305175781 79.5999984741211 -10.92300033569336 0 -1
73 86.4000015258789 -9.829999923706055 0 -1
76.5 77.5999984741211 -10.482999801635742 0 -1
76.69999694824219 88.19999694824219 -9.515000343322754 0 -1
75.80000305175781 79.5 -10.932999610900879 0 -1
78.69999694824219 72.5999984741211 14.524999618530273 1 -1
72 85.0999984741211 -10.829999923706055 0 -1
78.0999984741211 72.30000305175781 14.538000106811523 1 -1
72.5 78.9000015258789 -10.987000465393066 0 -1
74.5 87.5 -9.449999809265137 0 -1
75.4000015258789 84.5 -7.291999816894531 1 -1
76.80000305175781 87.19999694824219 -9.85200023651123 0 -1
75.5 78.69999694824219 -10.95199966430664 0 -1
77.80000305175781 88.5999984741211 -9.197999954223633 0 -1
76.19999694824219 77.0999984741211 -10.8100004196167 0 -1
78.80000305175781 84.5999984741211 -10.855999946594238 0 -1
73.69999694824219 89.4000015258789 -8.076000213623047 0 -1
79.30000305175781 72.0999984741211 14.560999870300293 1 -1
73.19999694824219 88.0999984741211 -8.944000244140625 0 -1
71 86.80000305175781 -9.930000305175781 0 -1
79.5 73.80000305175781 13.5 1 -1
74.5999984741211 88.19999694824219 -8.99899959564209 0 -1
74.19999694824219 83.80000305175781 -8.64900016784668 1 -1
78.30000305175781 86.4000015258789 -10.25 0 -1
72.80000305175781 84.69999694824219 -9.39900016784668 1 -1
75.5999984741211 84.19999694824219 -10.95199966430664 0 -1
77.19999694824219 83.19999694824219 -8.295999526977539 1 -1
78.69999694824219 72.69999694824219 14.506999969482422 1 -1
76.30000305175781 84.5 -10.991999626159668 0 -1
71.0999984741211 79.0999984741211 -10.982999801635742 0 -1
73.30000305175781 81.5 -10.89799976348877 0 -1
75.5 78.5999984741211 -10.987000465393066 0 -1
77.80000305175781 88.69999694824219 -8.98900032043457 0 -1
74.4000015258789 81.80000305175781 -10.843000411987305 0 -1
71.30000305175781 83.0999984741211 -9.53600025177002 1 -1
73.5999984741211 84.19999694824219 -9.585000038146973 1 -1
77 78.0999984741211 -10.394000053405762 0 -1
74.5999984741211 88.30000305175781 -8.944999694824219 0 -1
71.5999984741211 80.19999694824219 -11.039999961853027 0 -1
79.30000305175781 72 14.581999778747559 1 -1
78.4000015258789 72.30000305175781 14.538999557495117 1 -1
71.9000015258789 89.19999694824219 -7.071000099182129 0 -1
72.0999984741211 81 -11.0600004196167 0 -1
71.80000305175781 77.9000015258789 -10.90999984741211 0 -1
73.5 89.80000305175781 -7.630000114440918 0 -1
77.30000305175781 77.9000015258789 -10.244999885559082 0 -1
79 79.69999694824219 -10.970000267028809 0 -1
76.0999984741211 82.9000015258789 -10.994999885559082 0 -1
72.5 79.0999984741211 -10.987000465393066 0 -1
75.0999984741211 85.19999694824219 -10.621000289916992 0 -1
75.4000015258789 84.69999694824219 -10.788000106811523 0 -1
73.80000305175781 79.9000015258789 -10.850000381469727 0 -1
78.4000015258789 87.30000305175781 -9.840999603271484 0 -1
77.4000015258789 85.19999694824219 -10.857999801635742 0 -1
71.5 90 -6.646999835968018 0 -1
71.19999694824219 79.69999694824219 -10.993000030517578 0 -1
76.19999694824219 77.30000305175781 -10.8100004196167 0 -1
72.19999694824219 80.5 -11.081999778747559 0 -1
77.5 81.19999694824219 -10.369999885559082 1 -1
74.80000305175781 79.80000305175781 -10.895999908447266 0 -1
76.4000015258789 90 -8.385000228881836 0 -1
77.30000305175781 78 -10.201000213623047 0 -1
76.5999984741211 89.5 -8.725000381469727 0 -1
80 77.80000305175781 13.447999954223633 1 -1
78.4000015258789 72.19999694824219 14.541999816894531 1 -1
74.69999694824219 85.19999694824219 -10.571999549865723 0 -1
78.80000305175781 84.9000015258789 -10.984999656677246 0 -1
73.0999984741211 85.30000305175781 -10.527999877929688 0 -1
75.5999984741211 85.80000305175781 -10.571000099182129 0 -1
76.0999984741211 71.19999694824219 14.579000473022461 1 -1
72.69999694824219 81.30000305175781 -10.95300006866455 0 -1
77.69999694824219 86.30000305175781 -10.461999893188477 0 -1
74.19999694824219 83.5999984741211 -8.64900016784668 1 -1
78 79.5 -10.784000396728516 0 -1
73 86.30000305175781 -9.883000373840332 0 -1
77.19999694824219 83.4000015258789 -8.28499984741211 1 -1
76.5 77.69999694824219 -10.27400016784668 0 -1
76 79.19999694824219 -10.87600040435791 0 -1
76.0999984741211 82.69999694824219 -7.9039998054504395 1 -1
76.30000305175781 84.69999694824219 -10.902000427246094 0 -1
77.5999984741211 71.5999984741211 14.586000442504883 1 -1
75.19999694824219 89.80000305175781 -7.9679999351501465 0 -1
75 81.5999984741211 -10.916999816894531 0 -1
72.19999694824219 80.4000015258789 -11.069000244140625 0 -1
71 86.9000015258789 -9.890000343322754 0 -1
75.5 78.80000305175781 -10.901000022888184 0 -1
79.5 73.9000015258789 13.496000289916992 1 -1
78.4000015258789 87.4000015258789 -9.795999526977539 0 -1
77.80000305175781 88.5 -9.319999694824219 0 -1
73.30000305175781 81.80000305175781 -10.906000137329102 0 -1
74 86.5 -9.925000190734863 0 -1
71.80000305175781 78 -10.906999588012695 0 -1
78.19999694824219 71.4000015258789 14.581999778747559 1 -1
73.69999694824219 89.5 -7.986000061035156 0 -1
74.69999694824219 85.30000305175781 -10.621000289916992 0 -1
77.9000015258789 82 -8.458000183105469 1 -1
78.0999984741211 72.5999984741211 14.532999992370605 1 -1
78.30000305175781 86.5 -10.199999809265137 0 -1
78 79.19999694824219 -10.727999687194824 0 -1
78.69999694824219 76.5 -10.545000076293945 0 -1
71.0999984741211 79 -10.982999801635742 0 -1
76.9000015258789 82.80000305175781 -8.272000312805176 1 -1
72.69999694824219 81.4000015258789 -10.980999946594238 0 -1
73.5999984741211 84.0999984741211 -9.503999710083008 1 -1
74.9000015258789 83.9000015258789 -7.176000118255615 1 -1
73.19999694824219 88.5 -8.843999862670898 0 -1
77.0999984741211 80.69999694824219 -10.940999984741211 0 -1
74.4000015258789 81.9000015258789 -10.838000297546387 0 -1
72.80000305175781 84.80000305175781 -9.152999877929688 1 -1
71.30000305175781 83 -9.539999961853027 1 -1
76.9000015258789 82.69999694824219 -8.010000228881836 1 -1
77 78.19999694824219 -10.32800006866455 0 -1
77.4000015258789 85.80000305175781 -10.682999610900879 0 -1
78.69999694824219 72.19999694824219 14.539999961853027 1 -1
78.19999694824219 71.30000305175781 14.583000183105469 1 -1
78.0999984741211 72.69999694824219 14.532999992370605 1 -1
75.0999984741211 85 -10.79800033569336 0 -1
74 86.4000015258789 -9.859000205993652 0 -1
80 77.5999984741211 13.519000053405762 1 -1
76.0999984741211 82.80000305175781 -10.989999771118164 0 -1
78.5999984741211 82.5999984741211 -8.579000473022461 1 -1
72.5 79 -10.987000465393066 0 -1
76.69999694824219 71.5999984741211 14.545999526977539 1 -1
76.69999694824219 88.0999984741211 -9.548999786376953 0 -1
72.0999984741211 81.0999984741211 -11.064000129699707 0 -1
71.9000015258789 89.30000305175781 -6.900000095367432 0 -1
74.9000015258789 83.80000305175781 -7.123000144958496 1 -1
74.80000305175781 79.69999694824219 -10.888999938964844 0 -1
76.80000305175781 87.0999984741211 -9.965999603271484 0 -1
76.0999984741211 71.4000015258789 14.553999900817871 1 -1
75.19999694824219 89.5999984741211 -7.9679999351501465 0 -1
71.5 89.9000015258789 -6.394000053405762 0 -1
75.80000305175781 79.4000015258789 -10.902000427246094 0 -1
71.4000015258789 88.4000015258789 -8.935999870300293 0 -1
79.30000305175781 72.4000015258789 14.557999610900879 1 -1
78.69999694824219 72.30000305175781 14.552000045776367 1 -1
76.19999694824219 77.19999694824219 -10.831000328063965 0 -1
72 85.19999694824219 -10.781999588012695 0 -1
77.69999694824219 86.69999694824219 -9.939000129699707 0 -1
74.0999984741211 89.30000305175781 -8.402000427246094 0 -1
73.0999984741211 85.19999694824219 -10.574000358581543 0 -1
76.5999984741211 89.4000015258789 -8.76200008392334 0 -1
71.19999694824219 79.80000305175781 -10.993000030517578 0 -1
75.5999984741211 85.9000015258789 -10.593000411987305 0 -1
76.0999984741211 71.30000305175781 14.553999900817871 1 -1
74.5 87.0999984741211 -9.800000190734863 0 -1
76.5 77.80000305175781 -10.343999862670898 0 -1
77.5 81.5999984741211 -8.79800033569336 1 -1
74.19999694824219 83.69999694824219 -8.642000198364258 1 -1
78.5999984741211 82.5 -8.58899974822998 1 -1
74.4000015258789 81.69999694824219 -10.857999801635742 0 -1
75.19999694824219 89.69999694824219 -7.9070000648498535 0 -1
76.0999984741211 82.5999984741211 -8.062999725341797 1 -1
73 86.19999694824219 -9.9350004196167 0 -1
77.0999984741211 80 -10.9350004196167 0 -1
73.5999984741211 84.30000305175781 -8.965999603271484 1 -1
72.30000305175781 78.80000305175781 -10.98799991607666 0 -1
71 87 -9.842000007629395 0 -1
78.0999984741211 72.5 14.527000427246094 1 -1
74.5999984741211 88.4000015258789 -8.99899959564209 0 -1
71.5999984741211 80.30000305175781 -11.038999557495117 0 -1
77.5999984741211 71.5 14.581999778747559 1 -1
76.30000305175781 84.30000305175781 -10.991999626159668 0 -1
71.69999694824219 84.9000015258789 -9.788999557495117 1 -1
73.30000305175781 81.9000015258789 -10.076000213623047 1 -1
76.19999694824219 76.9000015258789 -10.769000053405762 0 -1
79.5 74.5 13.487000465393066 1 -1
73.69999694824219 89.19999694824219 -8.246999740600586 0 -1
71.0999984741211 78.9000015258789 -10.982999801635742 0 -1
75.4000015258789 84.80000305175781 -10.809000015258789 0 -1
76.5 76.80000305175781 -10.741000175476074 0 -1
75.5 78.4000015258789 -10.987000465393066 0 -1
77 78.5 -10.63599967956543 0 -1
73.80000305175781 80 -10.845000267028809 0 -1
76.4000015258789 89.0999984741211 -8.845999717712402 0 -1
78.30000305175781 86.5999984741211 -9.961999893188477 0 -1
74.19999694824219 83.5 -8.668000221252441 1 -1
73.69999694824219 89.0999984741211 -8.314000129699707 0 -1
72.5999984741211 79.19999694824219 -10.968000411987305 0 -1
71.4000015258789 83.5999984741211 -9.531999588012695 1 -1
78.0999984741211 76.5999984741211 -10.67300033569336 0 -1
77.4000015258789 85.9000015258789 -10.633000373840332 0 -1
74.5999984741211 88.5 -8.836999893188477 0 -1
76.80000305175781 88 -9.616999626159668 0 -1
76.4000015258789 89.19999694824219 -8.708999633789062 0 -1
72 86.80000305175781 -9.937000274658203 0 -1
75 81.5 -10.90999984741211 0 -1
71 89.0999984741211 -7.821000099182129 0 -1
77.30000305175781 78.5999984741211 -10.57699966430664 0 -1
74.0999984741211 89.0999984741211 -8.454999923706055 0 -1
76 79.0999984741211 -10.87600040435791 0 -1
78.80000305175781 84.80000305175781 -10.994000434875488 0 -1
71.30000305175781 89 -7.815999984741211 0 -1
75.0999984741211 85.0999984741211 -10.78499984741211 0 -1
77.9000015258789 82.9000015258789 -8.354000091552734 1 -1
78.4000015258789 72.0999984741211 14.538999557495117 1 -1
71.4000015258789 83.69999694824219 -9.48900032043457 1 -1
75.5999984741211 86 -10.571000099182129 0 -1
74.80000305175781 79.5999984741211 -10.895999908447266 0 -1
75.0999984741211 85.4000015258789 -10.581000328063965 0 -1
72 86.9000015258789 -9.880999565124512 0 -1
77.69999694824219 86.5999984741211 -10.369000434875488 0 -1
74 86.30000305175781 -9.925000190734863 0 -1
74.0999984741211 89.19999694824219 -8.38599967956543 0 -1
72.0999984741211 80.69999694824219 -11.048999786376953 0 -1
71.69999694824219 85.0999984741211 -9.670000076293945 1 -1
78.4000015258789 87.5 -9.807999610900879 0 -1
73.0999984741211 85.0999984741211 -10.638999938964844 0 -1
71.19999694824219 79.9000015258789 -11.039999961853027 0 -1
76.5999984741211 89.30000305175781 -8.798999786376953 0 -1
79 79.80000305175781 -10.998000144958496 0 -1
78 79.30000305175781 -10.784000396728516 0 -1
78.4000015258789 72 14.541999816894531 1 -1
74.69999694824219 85.4000015258789 -10.60200023651123 0 -1
77.30000305175781 78.69999694824219 -10.612000465393066 0 -1
76 79 -10.87600040435791 0 -1
73.5 89.9000015258789 -7.701000213623047 0 -1
72.19999694824219 80.80000305175781 -11.048999786376953 0 -1
73.30000305175781 81.69999694824219 -10.89799976348877 0 -1
76.69999694824219 89 -8.817000389099121 0 -1
75.0999984741211 71.69999694824219 14.565999984741211 1 -1
75 81.80000305175781 -10.880000114440918 0 -1
71.69999694824219 85 -9.628000259399414 1 -1
73 86.0999984741211 -9.98799991607666 0 -1
74.5 87.19999694824219 -9.767000198364258 0 -1
77.0999984741211 80.0999984741211 -10.932999610900879 0 -1
71.9000015258789 88.9000015258789 -7.583000183105469 0 -1
78.19999694824219 71.19999694824219 14.581999778747559 1 -1
80 77 12.857999801635742 1 -1
75.19999694824219 90 -7.9120001792907715 0 -1
75.80000305175781 79.80000305175781 -10.890999794006348 0 -1
79.5 74.5999984741211 13.472000122070312 1 -1
78.80000305175781 84.0999984741211 -11.093000411987305 0 -1
77.9000015258789 82.69999694824219 -8.376999855041504 1 -1
77.5 81.5 -8.934000015258789 1 -1
71.0999984741211 78.80000305175781 -10.982999801635742 0 -1
78.4000015258789 87.5999984741211 -9.784000396728516 0 -1
73.80000305175781 80.0999984741211 -10.850000381469727 0 -1
76.69999694824219 88.9000015258789 -8.984999656677246 0 -1
76.19999694824219 76.80000305175781 -10.748000144958496 0 -1
73.69999694824219 89.30000305175781 -8.180999755859375 0 -1
71.5 88.19999694824219 -9.312000274658203 0 -1
75 81.9000015258789 -10.878999710083008 0 -1
77.19999694824219 83.5 -8.288000106811523 1 -1
74.69999694824219 85.5 -10.581999778747559 0 -1
72.5999984741211 79.30000305175781 -10.965999603271484 0 -1
76.9000015258789 82.0999984741211 -8.656999588012695 1 -1
76.5 76.9000015258789 -10.760000228881836 0 -1
78.30000305175781 86.69999694824219 -9.998000144958496 0 -1
78.69999694824219 72.4000015258789 14.524999618530273 1 -1
71.4000015258789 83.5 -9.534000396728516 1 -1
74.9000015258789 83.69999694824219 -7.126999855041504 1 -1
78.0999984741211 76.69999694824219 -10.71500015258789 0 -1
71.80000305175781 79.69999694824219 -10.99899959564209 0 -1
71.5999984741211 79.4000015258789 -11.052000045776367 0 -1
77.80000305175781 88.4000015258789 -9.371999740600586 0 -1
75.80000305175781 79.69999694824219 -10.932999610900879 0 -1
77.9000015258789 82.80000305175781 -8.366000175476074 1 -1
79.30000305175781 72.30000305175781 14.560999870300293 1 -1
76.9000015258789 82 -8.675999641418457 1 -1
71.69999694824219 85.19999694824219 -9.541999816894531 1 -1
78.5999984741211 82.4000015258789 -8.598999977111816 1 -1
73.5 90 -7.630000114440918 0 -1
74.4000015258789 81.5999984741211 -10.852999687194824 0 -1
72.80000305175781 84.9000015258789 -9.154999732971191 1 -1
71.5 88.30000305175781 -8.722000122070312 0 -1
77.0999984741211 79.9000015258789 -10.99899959564209 0 -1
73.80000305175781 80.69999694824219 -10.843000411987305 0 -1
71.30000305175781 88.9000015258789 -8.88700008392334 0 -1
74.9000015258789 83.5999984741211 -7.123000144958496 1 -1
72.30000305175781 78.69999694824219 -10.996000289916992 0 -1
73.19999694824219 88.4000015258789 -8.89900016784668 0 -1
77.4000015258789 86 -10.571999549865723 0 -1
77.30000305175781 73.9000015258789 13.501999855041504 1 -1
77.19999694824219 83.69999694824219 -8.791000366210938 1 -1
71.80000305175781 73.9000015258789 13.454000473022461 1 -1
73.0999984741211 85 -10.678000450134277 0 -1
75.0999984741211 85.5 -10.550999641418457 0 -1
74.0999984741211 90 -7.866000175476074 0 -1
71.80000305175781 79.80000305175781 -10.996000289916992 0 -1
71 89.19999694824219 -7.973999977111816 0 -1
76.19999694824219 77 -10.748000144958496 0 -1
73.5999984741211 84.4000015258789 -8.923999786376953 1 -1
74.80000305175781 79.5 -10.888999938964844 0 -1
80 76.80000305175781 12.291999816894531 1 -1
76.30000305175781 84.4000015258789 -10.989999771118164 0 -1
71.19999694824219 80 -11.029000282287598 0 -1
71.5999984741211 79.5999984741211 -11.052000045776367 0 -1
76.5999984741211 89.19999694824219 -8.70199966430664 0 -1
79.30000305175781 72.19999694824219 14.557999610900879 1 -1
76.80000305175781 87.9000015258789 -9.651000022888184 0 -1
72.0999984741211 80.80000305175781 -11.053000450134277 0 -1
72.30000305175781 78.5999984741211 -10.98799991607666 0 -1
72.19999694824219 80.69999694824219 -11.081999778747559 0 -1
77 78.4000015258789 -10.32800006866455 0 -1
71.80000305175781 73.80000305175781 13.677000045776367 1 -1
75 81.69999694824219 -10.880999565124512 0 -1
75.19999694824219 89.9000015258789 -7.980000019073486 0 -1
78.4000015258789 71.9000015258789 14.553000450134277 1 -1
74.5999984741211 88.5999984741211 -8.890999794006348 0 -1
74.19999694824219 83.4000015258789 -8.82699966430664 1 -1
76.4000015258789 89.30000305175781 -8.755000114440918 0 -1
78.30000305175781 86.80000305175781 -9.979000091552734 0 -1
77.30000305175781 73.80000305175781 13.503999710083008 1 -1
77.19999694824219 83.5999984741211 -8.28499984741211 1 -1
79.5 74.69999694824219 13.451000213623047 1 -1
71.9000015258789 89 -7.408999919891357 0 -1
77.9000015258789 82.5999984741211 -8.388999938964844 1 -1
75.5999984741211 85.5999984741211 -10.657999992370605 0 -1
73.0999984741211 86 -10.425999641418457 0 -1
74.5 87.9000015258789 -8.979000091552734 0 -1
76.5 77 -10.779000282287598 0 -1
77.69999694824219 87 -10.04800033569336 0 -1
71.5 88.0999984741211 -9.378000259399414 0 -1
79 78.9000015258789 -10.598999977111816 0 -1
77.80000305175781 88.19999694824219 -9.47700023651123 0 -1
78.80000305175781 84.19999694824219 -11.069999694824219 0 -1
75.0999984741211 85.30000305175781 -10.652000427246094 0 -1
74.5999984741211 88.69999694824219 -8.836999893188477 0 -1
74.69999694824219 85.5999984741211 -10.562999725341797 0 -1
77.5 81.9000015258789 -8.902000427246094 1 -1
73 87 -9.786999702453613 0 -1
78 78.9000015258789 -10.38599967956543 0 -1
76.0999984741211 82.5 -7.9039998054504395 1 -1
77.30000305175781 78.80000305175781 -10.649999618530273 0 -1
76 78.9000015258789 -10.968999862670898 0 -1
78.0999984741211 76.4000015258789 -10.58899974822998 0 -1
71.0999984741211 78.69999694824219 -10.996999740600586 0 -1
76.4000015258789 89.4000015258789 -8.708999633789062 0 -1
78.0999984741211 71.9000015258789 14.559000015258789 1 -1
72 87 -9.937000274658203 0 -1
73.30000305175781 81.0999984741211 -10.833999633789062 0 -1
75.4000015258789 84.9000015258789 -10.788000106811523 0 -1
71.4000015258789 83.9000015258789 -9.472000122070312 1 -1
77.80000305175781 88.30000305175781 -9.319999694824219 0 -1
74 86.69999694824219 -9.758000373840332 0 -1
73.5999984741211 84.5999984741211 -8.923999786376953 1 -1
76.5999984741211 89.0999984741211 -8.817000389099121 0 -1
73.5 89.19999694824219 -8.3100004196167 0 -1
71.30000305175781 88.80000305175781 -8.961000442504883 0 -1
75.5 78.5 -10.940999984741211 0 -1
78.5999984741211 82.30000305175781 -11.119999885559082 0 -1
78.69999694824219 76.69999694824219 -10.545000076293945 0 -1
79.30000305175781 72.69999694824219 14.53499984741211 1 -1
71 89.30000305175781 -7.486999988555908 0 -1
74.19999694824219 83.19999694824219 -8.82699966430664 1 -1
77.19999694824219 83.80000305175781 -8.890000343322754 1 -1
79 79.0999984741211 -10.829999923706055 0 -1
78.4000015258789 87.69999694824219 -9.807999610900879 0 -1
73.19999694824219 88.80000305175781 -8.623000144958496 0 -1
77.4000015258789 85.5999984741211 -10.782999992370605 0 -1
71.19999694824219 80.0999984741211 -11.039999961853027 0 -1
74.0999984741211 89.9000015258789 -7.931000232696533 0 -1
76.69999694824219 88.80000305175781 -8.928999900817871 0 -1
78.69999694824219 72 14.539999961853027 1 -1
78.80000305175781 84 -11.163999557495117 0 -1
72.19999694824219 80.0999984741211 -10.885000228881836 0 -1
74.80000305175781 79.4000015258789 -10.868000030517578 0 -1
80 76.9000015258789 13.053000450134277 1 -1
71.80000305175781 79.4000015258789 -10.925000190734863 0 -1
74 86.5999984741211 -9.859000205993652 0 -1
79.5 74.30000305175781 13.487000465393066 1 -1
71.9000015258789 88.5999984741211 -7.953999996185303 0 -1
76.80000305175781 87.80000305175781 -9.506999969482422 0 -1
72.80000305175781 84 -8.92199993133545 1 -1
80 77.19999694824219 12.553000450134277 1 -1
78.5999984741211 82.19999694824219 -11.119999885559082 0 -1
76.30000305175781 84 -10.99899959564209 0 -1
75 74.0999984741211 13.52299976348877 1 -1
78.0999984741211 71.69999694824219 14.559000015258789 1 -1
78.30000305175781 86.9000015258789 -9.968000411987305 0 -1
79.30000305175781 72.5999984741211 14.541999816894531 1 -1
75.5999984741211 85.69999694824219 -10.593000411987305 0 -1
73.0999984741211 85.9000015258789 -10.463000297546387 0 -1
76.9000015258789 82.4000015258789 -8.600000381469727 1 -1
71.5999984741211 79.5 -11.041999816894531 0 -1
72.0999984741211 80.4000015258789 -11.057000160217285 0 -1
75.80000305175781 79.0999984741211 -10.892999649047852 0 -1
78 79.0999984741211 -10.559000015258789 0 -1
77.0999984741211 80.30000305175781 -10.940999984741211 0 -1
78.69999694824219 72.0999984741211 14.550000190734863 1 -1
77 78.80000305175781 -10.755999565124512 0 -1
74.4000015258789 81.5 -10.866999626159668 0 -1
71.80000305175781 74.19999694824219 13.609000205993652 1 -1
79 79 -10.651000022888184 0 -1
76.5 77.0999984741211 -10.76200008392334 0 -1
73.5 89.0999984741211 -8.380999565124512 0 -1
72.19999694824219 80 -10.895000457763672 0 -1
73.30000305175781 80.9000015258789 -10.833999633789062 0 -1
73.80000305175781 80.80000305175781 -10.842000007629395 0 -1
77.5 81.80000305175781 -8.524999618530273 1 -1
78.4000015258789 87.80000305175781 -9.734999656677246 0 -1
77.80000305175781 88.0999984741211 -9.486000061035156 0 -1
73.69999694824219 89.9000015258789 -7.959000110626221 0 -1
77.69999694824219 86.9000015258789 -10.107000350952148 0 -1
75 74 13.527000427246094 1 -1
76.0999984741211 82.4000015258789 -8.380000114440918 1 -1
73 86.9000015258789 -9.824999809265137 0 -1
74.5 88 -8.907999992370605 0 -1
71.0999984741211 78.5999984741211 -10.994000434875488 0 -1
73.5999984741211 84.5 -8.881999969482422 1 -1
74.9000015258789 83.5 -7.159999847412109 1 -1
75.80000305175781 79 -10.86400032043457 0 -1
78.0999984741211 76.5 -10.630999565124512 0 -1
75.5 78.19999694824219 -10.803000450134277 0 -1
71.5999984741211 79.69999694824219 -11.043000221252441 0 -1
78.0999984741211 71.80000305175781 14.555999755859375 1 -1
76.19999694824219 77.5999984741211 -10.609000205993652 0 -1
72.30000305175781 78.5 -10.894000053405762 0 -1
78.4000015258789 71.80000305175781 14.548999786376953 1 -1
73.5 89.30000305175781 -8.309000015258789 0 -1
72 86.5999984741211 -10.37399959564209 0 -1
71.5 88.5 -8.781999588012695 0 -1
74.19999694824219 83.30000305175781 -8.795999526977539 1 -1
71 89.4000015258789 -7.297999858856201 0 -1
74.9000015258789 83.4000015258789 -7.1570000648498535 1 -1
74.4000015258789 81.30000305175781 -10.866999626159668 0 -1
73.19999694824219 88.5999984741211 -8.788000106811523 0 -1
72.80000305175781 84.19999694824219 -9.213000297546387 1 -1
74.80000305175781 79.30000305175781 -10.875 0 -1
76.30000305175781 84.19999694824219 -10.99899959564209 0 -1
72.5999984741211 78.9000015258789 -10.972999572753906 0 -1
77.4000015258789 85.69999694824219 -10.633000373840332 0 -1
75.5 78.0999984741211 -10.553000450134277 0 -1
76.80000305175781 87.69999694824219 -9.71399974822998 0 -1
72.30000305175781 78.4000015258789 -10.902999877929688 0 -1
77 78.5999984741211 -10.595000267028809 0 -1
75.4000015258789 84 -7.23799991607666 1 -1
76 79.80000305175781 -10.928000450134277 0 -1
78.0999984741211 72.0999984741211 14.527000427246094 1 -1
75.5999984741211 85.30000305175781 -10.654000282287598 0 -1
74.5999984741211 88.80000305175781 -8.715999603271484 0 -1
77.30000305175781 78.4000015258789 -10.506999969482422 0 -1
72 86.69999694824219 -9.993000030517578 0 -1
72.80000305175781 84.0999984741211 -8.949000358581543 1 -1
71.19999694824219 80.19999694824219 -11.041000366210938 0 -1
71.9000015258789 88.69999694824219 -8.116000175476074 0 -1
71.69999694824219 85.30000305175781 -9.49899959564209 1 -1
74.69999694824219 85.69999694824219 -10.543000221252441 0 -1
78.80000305175781 84.4000015258789 -10.87600040435791 0 -1
73.0999984741211 85.80000305175781 -10.5 0 -1
73.19999694824219 88.69999694824219 -8.687999725341797 0 -1
80 77.30000305175781 13.465999603271484 1 -1
71.30000305175781 88.69999694824219 -8.95300006866455 0 -1
78.4000015258789 71.69999694824219 14.553000450134277 1 -1
76.5 77.19999694824219 -10.77400016784668 0 -1
75 74.19999694824219 13.541000366210938 1 -1
