VERSION .7
FIELDS x y z label object
SIZE 4 4 4 4 4
TYPE F F F I I
COUNT 1 1 1 1 1
WIDTH 899
HEIGHT 1
POINTS 899
VIEWPOINT 0 0 0 1 0 0 0
DATA ascii
72.5999984741211 88.80000305175781 -9.633999824523926 0 -1
75.30000305175781 72.5999984741211 13.607000350952148 1 -1
79.30000305175781 82.80000305175781 -9.069000244140625 0 -1
78.19999694824219 84 -9.262999534606934 0 -1
76.80000305175781 85.30000305175781 -10.807999610900879 0 -1
77 73.19999694824219 17.277999877929688 1 -1
77.19999694824219 86.5999984741211 -10.954999923706055 0 -1
72.69999694824219 83.80000305175781 -9.710000038146973 0 -1
79.0999984741211 82.5999984741211 -9.373000144958496 0 -1
79.9000015258789 86.5999984741211 -9.871999740600586 0 -1
79 83.19999694824219 -8.979999542236328 0 -1
78.5999984741211 80.30000305175781 -10.359000205993652 0 -1
75.80000305175781 89.5 -10.661999702453613 0 -1
73.5 81.80000305175781 -6.627999782562256 1 -1
79.5 73.30000305175781 17.27199935913086 1 -1
77 73.0999984741211 17.291000366210938 1 -1
71.80000305175781 71.5999984741211 13.708000183105469 1 -1
78 76.30000305175781 16.968000411987305 1 -1
75.30000305175781 72.69999694824219 13.597999572753906 1 -1
72.69999694824219 83.9000015258789 -9.661999702453613 0 -1
72.5999984741211 88.5999984741211 -9.633999824523926 0 -1
73.30000305175781 72.4000015258789 13.67300033569336 1 -1
80 83.5999984741211 -8.934000015258789 0 -1
77.30000305175781 87.5 -10.659000396728516 0 -1
74.4000015258789 83.5 -10.704999923706055 0 -1
72.5 85.69999694824219 -9.08899974822998 0 -1
76.5999984741211 74.30000305175781 18.16900062561035 1 -1
71.5999984741211 87.30000305175781 -8.989999771118164 0 -1
75.5999984741211 76.5 18.586999893188477 1 -1
72.80000305175781 89.4000015258789 -8.708000183105469 0 -1
79.69999694824219 89.19999694824219 -7.949999809265137 0 -1
75.19999694824219 89.4000015258789 -9.258000373840332 0 -1
78.0999984741211 83.4000015258789 -9.277999877929688 0 -1
77.4000015258789 78.4000015258789 17.618999481201172 1 -1
73.30000305175781 72.5 13.666999816894531 1 -1
79.69999694824219 89.0999984741211 -7.579999923706055 0 -1
76.69999694824219 71.5999984741211 13.562000274658203 1 -1
77.5 86.19999694824219 -10.777000427246094 0 -1
71.69999694824219 76.5999984741211 -8.746000289916992 1 -1
71.80000305175781 71.5 13.741999626159668 1 -1
74.4000015258789 83.69999694824219 -10.482000350952148 0 -1
78.9000015258789 84.4000015258789 -8.991999626159668 0 -1
77 73.30000305175781 17.60099983215332 1 -1
76.9000015258789 83.9000015258789 -10.25100040435791 0 -1
75.30000305175781 72.5 13.616999626159668 1 -1
76.80000305175781 84.69999694824219 -10.673999786376953 0 -1
74.30000305175781 76.0999984741211 18.229000091552734 1 -1
78.5999984741211 80.19999694824219 -10.331999778747559 0 -1
80 83.80000305175781 -8.934000015258789 0 -1
73.5 81.9000015258789 -6.494999885559082 1 -1
79 83.30000305175781 -8.979999542236328 0 -1
74.4000015258789 83.5999984741211 -10.538000106811523 0 -1
71 71.5 13.656000137329102 1 -1
78 76.4000015258789 16.944000244140625 1 -1
71.5999984741211 87.5 -8.946999549865723 0 -1
75.5999984741211 76.30000305175781 18.038999557495117 1 -1
78.0999984741211 83.19999694824219 -9.402000427246094 0 -1
79.5 73.4000015258789 17.20800018310547 1 -1
73.5999984741211 74.5 -8.779999732971191 1 -1
72.5999984741211 88.69999694824219 -9.635000228881836 0 -1
72.9000015258789 84.30000305175781 -9.87600040435791 0 -1
77.19999694824219 87.5 -10.565999984741211 0 -1
75.80000305175781 88.5999984741211 -10.6899995803833 0 -1
72.69999694824219 83.5 -9.854999542236328 0 -1
72.9000015258789 84.4000015258789 -9.947999954223633 0 -1
79 83.0999984741211 -8.907999992370605 0 -1
75.5999984741211 76.4000015258789 18.861000061035156 1 -1
79.9000015258789 87 -8.975000381469727 0 -1
79.30000305175781 82.9000015258789 -8.982000350952148 0 -1
72.80000305175781 89.5 -8.605999946594238 0 -1
79.0999984741211 82.69999694824219 -9.142000198364258 0 -1
78.19999694824219 84.0999984741211 -9.256999969482422 0 -1
77.30000305175781 86.5999984741211 -10.888999938964844 0 -1
77.5 86.0999984741211 -10.762999534606934 0 -1
72.5999984741211 89 -8.843000411987305 0 -1
73.5 81.69999694824219 -6.52400016784668 1 -1
75.9000015258789 83.5999984741211 -10.869000434875488 0 -1
78.19999694824219 84.19999694824219 -9.24899959564209 0 -1
77.4000015258789 78.30000305175781 17.5049991607666 1 -1
74.4000015258789 83.80000305175781 -10.538000106811523 0 -1
76.5999984741211 74.4000015258789 18.273000717163086 1 -1
77.19999694824219 87.30000305175781 -10.756999969482422 0 -1
78 76.19999694824219 17.639999389648438 1 -1
79.30000305175781 83 -8.916999816894531 0 -1
77.30000305175781 86.69999694824219 -10.890000343322754 0 -1
76.80000305175781 84.5999984741211 -10.62600040435791 0 -1
76.69999694824219 71.5 13.616000175476074 1 -1
78.9000015258789 84 -9.291999816894531 0 -1
75.9000015258789 83.69999694824219 -10.800000190734863 0 -1
78.0999984741211 83.30000305175781 -9.46399974822998 0 -1
73.30000305175781 72.5999984741211 13.661999702453613 1 -1
79.69999694824219 89.5 -7.703000068664551 0 -1
72.5 85.80000305175781 -9.114999771118164 0 -1
79.0999984741211 82.80000305175781 -9.069999694824219 0 -1
75.5999984741211 76.19999694824219 18.264999389648438 1 -1
79.9000015258789 86.80000305175781 -9.800000190734863 0 -1
79.5 73.5 17.27199935913086 1 -1
71.69999694824219 76.5 -8.729000091552734 1 -1
75.80000305175781 88.69999694824219 -10.708000183105469 0 -1
77.4000015258789 78.0999984741211 16.910999298095703 1 -1
78.5999984741211 81.5999984741211 -9.925999641418457 0 -1
71.80000305175781 71.4000015258789 13.694999694824219 1 -1
78.19999694824219 85.80000305175781 -10.369000434875488 0 -1
73.30000305175781 72.69999694824219 13.666999816894531 1 -1
74.30000305175781 76 18.29800033569336 1 -1
71.80000305175781 71.30000305175781 13.71399974822998 1 -1
76.9000015258789 83.80000305175781 -10.583000183105469 0 -1
71.5 80 -9.345999717712402 1 -1
78.9000015258789 84.19999694824219 -8.961999893188477 0 -1
76.5999984741211 74 18.229000091552734 1 -1
80 83.9000015258789 -8.935999870300293 0 -1
75.19999694824219 89.30000305175781 -9.706999778747559 0 -1
71.69999694824219 76.30000305175781 -8.6899995803833 1 -1
77.4000015258789 78.19999694824219 17.447999954223633 1 -1
74.30000305175781 75.80000305175781 18.03700065612793 1 -1
76.80000305175781 84.5 -9.970000267028809 0 -1
72.9000015258789 84 -9.793000221252441 0 -1
77.5 88 -10.300999641418457 0 -1
77.19999694824219 87.4000015258789 -10.659000396728516 0 -1
72.5 86 -9.498000144958496 0 -1
71.5 80.0999984741211 -9.24899959564209 1 -1
72.80000305175781 89.0999984741211 -8.907999992370605 0 -1
71.5999984741211 87.0999984741211 -8.991999626159668 0 -1
79 83 -8.979999542236328 0 -1
79.9000015258789 86.9000015258789 -9.78600025177002 0 -1
75.30000305175781 71.9000015258789 13.666999816894531 1 -1
76.9000015258789 83.5999984741211 -10.682999610900879 0 -1
79.5 73.5999984741211 17.207000732421875 1 -1
77 73.4000015258789 17.725000381469727 1 -1
72.69999694824219 83.5999984741211 -9.807000160217285 0 -1
77.4000015258789 78 17.559999465942383 1 -1
73.5 81.5999984741211 -6.577000141143799 1 -1
77.19999694824219 87.19999694824219 -10.79800033569336 0 -1
72.5999984741211 88.9000015258789 -9.635000228881836 0 -1
79.30000305175781 83.0999984741211 -8.85200023651123 0 -1
78.9000015258789 84.0999984741211 -8.96399974822998 0 -1
75.80000305175781 88.80000305175781 -10.652000427246094 0 -1
78 76.0999984741211 17.336000442504883 1 -1
72.69999694824219 83.69999694824219 -9.854999542236328 0 -1
76.5999984741211 74.0999984741211 18.134000778198242 1 -1
72.80000305175781 89.19999694824219 -8.708000183105469 0 -1
75.19999694824219 89.0999984741211 -10.829000473022461 0 -1
71.5 79.9000015258789 -9.284000396728516 1 -1
77.30000305175781 86.80000305175781 -10.885000228881836 0 -1
75.19999694824219 89.19999694824219 -9.937999725341797 0 -1
79.9000015258789 86.19999694824219 -9.78600025177002 0 -1
72.5 85.9000015258789 -9.071999549865723 0 -1
79.0999984741211 82.9000015258789 -8.996999740600586 0 -1
79.69999694824219 89.4000015258789 -7.558000087738037 0 -1
74.30000305175781 75.9000015258789 18.30299949645996 1 -1
71.69999694824219 76.4000015258789 -8.746000289916992 1 -1
75.30000305175781 71.69999694824219 13.645000457763672 1 -1
80 83 -8.89799976348877 0 -1
77.30000305175781 86.9000015258789 -10.883000373840332 0 -1
79.69999694824219 89.80000305175781 -7.501999855041504 0 -1
71.5999984741211 87.19999694824219 -8.956999778747559 0 -1
76.80000305175781 84.9000015258789 -10.673999786376953 0 -1
73.30000305175781 72.80000305175781 13.67199993133545 1 -1
74.69999694824219 72.9000015258789 13.64799976348877 1 -1
78.19999694824219 85.9000015258789 -10.38599967956543 0 -1
75.30000305175781 71.80000305175781 13.656000137329102 1 -1
76.9000015258789 83.69999694824219 -10.532999992370605 0 -1
74.4000015258789 83.9000015258789 -10.28499984741211 0 -1
71.9000015258789 77.4000015258789 -8.786999702453613 1 -1
78.9000015258789 84.80000305175781 -9.397000312805176 0 -1
77.5 87.9000015258789 -10.413999557495117 0 -1
77 73.5 18.033000946044922 1 -1
79.5 73.69999694824219 17.18600082397461 1 -1
71.80000305175781 71.19999694824219 13.725000381469727 1 -1
74.4000015258789 82 -11.41100025177002 0 -1
79 83.9000015258789 -9.291999816894531 0 -1
72.5999984741211 87.19999694824219 -9.993000030517578 0 -1
74.30000305175781 75.69999694824219 18.30299949645996 1 -1
72.9000015258789 84.0999984741211 -9.87600040435791 0 -1
71.0999984741211 71 13.619000434875488 1 -1
75.5999984741211 76.0999984741211 18.312999725341797 1 -1
72.5 82 -10.987000465393066 0 -1
75.80000305175781 88.9000015258789 -10.670999526977539 0 -1
75.19999694824219 89 -10.949000358581543 0 -1
78.19999694824219 86 -10.402000427246094 0 -1
72.80000305175781 89.30000305175781 -8.907999992370605 0 -1
76.5999984741211 74.19999694824219 18.229000091552734 1 -1
75.30000305175781 72.0999984741211 13.623000144958496 1 -1
73.5 81.5 -6.6529998779296875 1 -1
73.5999984741211 74.4000015258789 -8.741000175476074 1 -1
72.9000015258789 84.19999694824219 -9.741999626159668 0 -1
76.80000305175781 84.80000305175781 -10.62600040435791 0 -1
79.30000305175781 83.19999694824219 -8.916999816894531 0 -1
77 73.69999694824219 18.027999877929688 1 -1
72.69999694824219 84.30000305175781 -9.984000205993652 0 -1
76.9000015258789 83.5 -10.633000373840332 0 -1
77.19999694824219 87.0999984741211 -10.756999969482422 0 -1
79.0999984741211 82 -9.593000411987305 0 -1
79.30000305175781 83.30000305175781 -8.960000038146973 0 -1
78 76 17.260000228881836 1 -1
77.5 87.80000305175781 -10.46399974822998 0 -1
72.80000305175781 86.80000305175781 -9.95199966430664 0 -1
78 75.80000305175781 16.83099937438965 1 -1
77 73.5999984741211 17.72800064086914 1 -1
79.0999984741211 82.0999984741211 -9.550999641418457 0 -1
75.80000305175781 89 -10.652000427246094 0 -1
79.9000015258789 86.0999984741211 -9.5649995803833 0 -1
75.0999984741211 83.9000015258789 -10.232999801635742 0 -1
79.69999694824219 89.69999694824219 -7.703000068664551 0 -1
71.0999984741211 71.0999984741211 13.637999534606934 1 -1
79.5 72.80000305175781 17.20199966430664 1 -1
75.5999984741211 76 18.645999908447266 1 -1
78.5999984741211 81.80000305175781 -9.821999549865723 0 -1
72.69999694824219 84.4000015258789 -9.680999755859375 0 -1
80 83.0999984741211 -8.96500015258789 0 -1
73.69999694824219 74.30000305175781 -8.762999534606934 1 -1
74.69999694824219 72.80000305175781 13.642999649047852 1 -1
73.30000305175781 72.9000015258789 13.65999984741211 1 -1
77.30000305175781 87 -10.885000228881836 0 -1
78.19999694824219 85.5999984741211 -10.343000411987305 0 -1
78.9000015258789 84.9000015258789 -9.428999900817871 0 -1
78.69999694824219 80.4000015258789 -10.279999732971191 0 -1
72.5999984741211 87.0999984741211 -9.960000038146973 0 -1
75.0999984741211 83.80000305175781 -10.359999656677246 0 -1
79.69999694824219 89.5999984741211 -7.636000156402588 0 -1
77.4000015258789 77.9000015258789 17.5 1 -1
73.30000305175781 73 13.689000129699707 1 -1
79.9000015258789 86.4000015258789 -9.78600025177002 0 -1
79 83.80000305175781 -9.293000221252441 0 -1
76.69999694824219 71.0999984741211 13.581000328063965 1 -1
80 83.30000305175781 -8.727999687194824 0 -1
77 73.80000305175781 18.079999923706055 1 -1
72.5 82.0999984741211 -10.696000099182129 0 -1
76.5999984741211 73.80000305175781 18.358999252319336 1 -1
78 75.9000015258789 17.090999603271484 1 -1
75.9000015258789 83.80000305175781 -10.869000434875488 0 -1
77.5 87.69999694824219 -10.413999557495117 0 -1
75.5999984741211 75.80000305175781 18.618999481201172 1 -1
72.80000305175781 86.9000015258789 -9.99899959564209 0 -1
72.9000015258789 83.80000305175781 -9.793000221252441 0 -1
77.19999694824219 88 -10.227999687194824 0 -1
71.9000015258789 77.5 -8.789999961853027 1 -1
79.5 72.9000015258789 17.190000534057617 1 -1
75.5999984741211 75.9000015258789 18.60700035095215 1 -1
78.5999984741211 81.69999694824219 -9.880000114440918 0 -1
72.9000015258789 83.9000015258789 -9.854000091552734 0 -1
74.4000015258789 82.0999984741211 -11.350000381469727 0 -1
76.9000015258789 83.4000015258789 -10.682999610900879 0 -1
79 83.5999984741211 -9.295000076293945 0 -1
72.69999694824219 84 -9.99899959564209 0 -1
78.9000015258789 84.5999984741211 -8.984999656677246 0 -1
78.69999694824219 80.5 -10.274999618530273 0 -1
75.19999694824219 88.9000015258789 -10.975000381469727 0 -1
75.80000305175781 88.0999984741211 -10.753000259399414 0 -1
72.5 82.30000305175781 -10.663000106811523 0 -1
79.9000015258789 86.5 -9.829000473022461 0 -1
77.30000305175781 86.0999984741211 -10.873000144958496 0 -1
76.69999694824219 71 13.5649995803833 1 -1
75.30000305175781 72 13.607000350952148 1 -1
80 83.19999694824219 -8.786999702453613 0 -1
79.30000305175781 83.4000015258789 -8.996000289916992 0 -1
78 75.69999694824219 16.72100067138672 1 -1
79.0999984741211 82.19999694824219 -9.593000411987305 0 -1
78.69999694824219 77.9000015258789 17.29400062561035 1 -1
73.69999694824219 74.4000015258789 -8.843000411987305 1 -1
76.5999984741211 73.9000015258789 18.134000778198242 1 -1
74.69999694824219 73.19999694824219 13.645000457763672 1 -1
79.30000305175781 83.5 -8.968999862670898 0 -1
76.9000015258789 83.19999694824219 -10.79800033569336 0 -1
79.0999984741211 82.30000305175781 -9.550999641418457 0 -1
77.5 87.5999984741211 -10.5649995803833 0 -1
79.9000015258789 86.30000305175781 -9.829000473022461 0 -1
72.5999984741211 87.5 -9.84000015258789 0 -1
72.80000305175781 87 -9.918000221252441 0 -1
79.69999694824219 90 -7.501999855041504 0 -1
77.30000305175781 86.19999694824219 -10.85200023651123 0 -1
74.4000015258789 82.30000305175781 -11.22599983215332 0 -1
74.69999694824219 73.0999984741211 13.61299991607666 1 -1
78.19999694824219 85.69999694824219 -10.298999786376953 0 -1
78.69999694824219 80.30000305175781 -10.293999671936035 0 -1
75.0999984741211 83.69999694824219 -10.918999671936035 0 -1
79.5 73 17.319000244140625 1 -1
73.30000305175781 73.0999984741211 13.692000389099121 1 -1
78.9000015258789 84.5 -8.95199966430664 0 -1
74.4000015258789 82.19999694824219 -11.41100025177002 0 -1
75.80000305175781 88.19999694824219 -10.961999893188477 0 -1
80 83.4000015258789 -8.786999702453613 0 -1
71.9000015258789 77.5999984741211 -8.781000137329102 1 -1
79 83.69999694824219 -9.295999526977539 0 -1
73.30000305175781 73.19999694824219 13.694999694824219 1 -1
78.4000015258789 73.4000015258789 18.527000427246094 1 -1
75.19999694824219 88.80000305175781 -10.949000358581543 0 -1
72.5 82.19999694824219 -10.670999526977539 0 -1
75.0999984741211 83.5999984741211 -10.954000473022461 0 -1
78.19999694824219 85.30000305175781 -10.166999816894531 0 -1
72.5 82.4000015258789 -10.670999526977539 0 -1
77.5 87.5 -10.515000343322754 0 -1
77.19999694824219 87.9000015258789 -10.366000175476074 0 -1
72.5999984741211 87.30000305175781 -9.937999725341797 0 -1
73.69999694824219 74.5 -8.994000434875488 1 -1
72.0999984741211 71 21.174999237060547 1 -1
78.4000015258789 73.30000305175781 18.229000091552734 1 -1
72.9000015258789 83.5 -9.97599983215332 0 -1
79 83.5 -9.295999526977539 0 -1
76.69999694824219 72.4000015258789 13.595000267028809 1 -1
76.9000015258789 83.30000305175781 -10.744000434875488 0 -1
71.9000015258789 77.80000305175781 -8.781000137329102 1 -1
77 73.9000015258789 17.66200065612793 1 -1
72.69999694824219 84.0999984741211 -9.984000205993652 0 -1
78.9000015258789 84.69999694824219 -8.949000358581543 0 -1
76.5999984741211 77.5999984741211 16.923999786376953 1 -1
72.0999984741211 71.0999984741211 21.07699966430664 1 -1
79.0999984741211 82.4000015258789 -9.473999977111816 0 -1
80 88.69999694824219 -7.828000068664551 0 -1
79.5 73.0999984741211 17.297000885009766 1 -1
77.19999694824219 87.69999694824219 -10.565999984741211 0 -1
72.69999694824219 84.19999694824219 -9.883000373840332 0 -1
71.9000015258789 77.69999694824219 -8.777999877929688 1 -1
78 75.5999984741211 16.95199966430664 1 -1
75.19999694824219 88.5999984741211 -10.987000465393066 0 -1
79.30000305175781 83.5999984741211 -8.996000289916992 0 -1
78.69999694824219 78 17.249000549316406 1 -1
75.80000305175781 88.30000305175781 -10.961999893188477 0 -1
74.4000015258789 82.4000015258789 -11.288000106811523 0 -1
72.80000305175781 86.5999984741211 -9.89799976348877 0 -1
79.69999694824219 89.9000015258789 -7.568999767303467 0 -1
72.5999984741211 87.4000015258789 -9.960000038146973 0 -1
77.30000305175781 86.30000305175781 -10.873000144958496 0 -1
79.30000305175781 83.69999694824219 -8.968999862670898 0 -1
77.5 87.4000015258789 -10.5649995803833 0 -1
74.69999694824219 73 13.61400032043457 1 -1
75.19999694824219 88.69999694824219 -10.975000381469727 0 -1
77 74.0999984741211 17.641000747680664 1 -1
73.69999694824219 74.5999984741211 -8.944000244140625 1 -1
79.9000015258789 85.69999694824219 -8.836000442504883 0 -1
78.69999694824219 80.19999694824219 -10.190999984741211 0 -1
75.0999984741211 83.5 -10.918999671936035 0 -1
77.80000305175781 80.9000015258789 -9.869999885559082 0 -1
76.5999984741211 77.69999694824219 17.03499984741211 1 -1
78 75.4000015258789 17.158000946044922 1 -1
77 74 17.606000900268555 1 -1
78.69999694824219 78.19999694824219 17.5939998626709 1 -1
73.30000305175781 73.30000305175781 11.404999732971191 1 -1
76.69999694824219 72.30000305175781 13.598999977111816 1 -1
78.19999694824219 85.4000015258789 -10.255000114440918 0 -1
80 88.5999984741211 -7.951000213623047 0 -1
72.5999984741211 87.69999694824219 -9.84000015258789 0 -1
72.5 82.5 -10.663000106811523 0 -1
72.9000015258789 83.5999984741211 -9.914999961853027 0 -1
79.5 73.19999694824219 17.20800018310547 1 -1
77.19999694824219 87.80000305175781 -10.416000366210938 0 -1
78.4000015258789 73.69999694824219 18.341999053955078 1 -1
75.19999694824219 88.5 -10.930000305175781 0 -1
75.0999984741211 83.4000015258789 -10.954000473022461 0 -1
71.9000015258789 76.9000015258789 -8.850000381469727 1 -1
79 84.4000015258789 -8.95199966430664 0 -1
72.0999984741211 71.19999694824219 21.174999237060547 1 -1
71.69999694824219 75.69999694824219 -8.656000137329102 1 -1
74.4000015258789 82.5 -11.22599983215332 0 -1
79.4000015258789 71.19999694824219 18.22599983215332 1 -1
72.80000305175781 86.69999694824219 -9.95199966430664 0 -1
78.19999694824219 85.5 -10.298999786376953 0 -1
72.9000015258789 83.69999694824219 -9.854000091552734 0 -1
79.0999984741211 85.5999984741211 -9.663999557495117 0 -1
75.80000305175781 88.4000015258789 -10.961999893188477 0 -1
80 88.80000305175781 -7.986999988555908 0 -1
71.0999984741211 71.5 13.67300033569336 1 -1
78.69999694824219 80 -10.111000061035156 0 -1
78.4000015258789 73.5999984741211 18.55500030517578 1 -1
71.9000015258789 76.80000305175781 -8.822999954223633 1 -1
77.5 87.30000305175781 -10.779000282287598 0 -1
77.30000305175781 86.4000015258789 -10.906999588012695 0 -1
73.69999694824219 74.69999694824219 -8.994000434875488 1 -1
78.9000015258789 83.19999694824219 -8.979999542236328 0 -1
77.80000305175781 81 -9.939000129699707 0 -1
77 74.19999694824219 17.506999969482422 1 -1
77.19999694824219 87.5999984741211 -10.515999794006348 0 -1
77.69999694824219 78.5999984741211 -10.465999603271484 0 -1
77.30000305175781 86.5 -10.890000343322754 0 -1
72.69999694824219 84.80000305175781 -9.63599967956543 0 -1
78 75.5 17.05500030517578 1 -1
79.69999694824219 86.19999694824219 -9.87600040435791 0 -1
72.5999984741211 87.80000305175781 -9.824000358581543 0 -1
78.69999694824219 78.0999984741211 17.642000198364258 1 -1
76.69999694824219 72.19999694824219 13.612000465393066 1 -1
76.5999984741211 77.80000305175781 17.038000106811523 1 -1
75.69999694824219 71 13.616000175476074 1 -1
74.69999694824219 73.4000015258789 12.293999671936035 1 -1
79.69999694824219 86.0999984741211 -9.92300033569336 0 -1
71.9000015258789 77 -8.84000015258789 1 -1
76.69999694824219 72.69999694824219 17.597999572753906 1 -1
78.19999694824219 85 -9.83899974822998 0 -1
71.0999984741211 71.5999984741211 13.682000160217285 1 -1
72.80000305175781 86.30000305175781 -9.717000007629395 0 -1
72.69999694824219 84.9000015258789 -9.564000129699707 0 -1
76.19999694824219 86 -11.282999992370605 0 -1
79.30000305175781 83.80000305175781 -9.282999992370605 0 -1
74.69999694824219 73.30000305175781 12.072999954223633 1 -1
78.9000015258789 83.4000015258789 -8.979999542236328 0 -1
79.9000015258789 85.5999984741211 -8.847999572753906 0 -1
78.69999694824219 80.0999984741211 -10.163999557495117 0 -1
75.80000305175781 88.5 -10.708000183105469 0 -1
79.5999984741211 73 17.069000244140625 1 -1
78.69999694824219 79.9000015258789 -10.083999633789062 0 -1
78.19999694824219 85.0999984741211 -9.965999603271484 0 -1
79.30000305175781 83.9000015258789 -9.303000450134277 0 -1
72.9000015258789 83.19999694824219 -10.970000267028809 0 -1
77.5 87.19999694824219 -10.762999534606934 0 -1
79.9000015258789 85.9000015258789 -9.5649995803833 0 -1
76.80000305175781 87.80000305175781 -10.435999870300293 0 -1
78 75.30000305175781 17.05500030517578 1 -1
79 84.30000305175781 -8.991999626159668 0 -1
72.5999984741211 87.5999984741211 -9.845000267028809 0 -1
78.69999694824219 78.30000305175781 17.594999313354492 1 -1
76.19999694824219 85.9000015258789 -11.282999992370605 0 -1
76.5999984741211 77.4000015258789 17.038000106811523 1 -1
72.5 82.5999984741211 -10.637999534606934 0 -1
72.9000015258789 83.30000305175781 -9.991000175476074 0 -1
78.4000015258789 73.5 18.341999053955078 1 -1
72.0999984741211 71.30000305175781 21.038000106811523 1 -1
79.4000015258789 71.30000305175781 18.320999145507812 1 -1
71.69999694824219 75.5999984741211 -8.61299991607666 1 -1
79.0999984741211 85.69999694824219 -9.781999588012695 0 -1
75.69999694824219 71.0999984741211 13.616999626159668 1 -1
79.5999984741211 73.19999694824219 17.19700050354004 1 -1
76.69999694824219 72.5999984741211 13.595000267028809 1 -1
72.0999984741211 71.4000015258789 21.051000595092773 1 -1
80 88.9000015258789 -7.822999954223633 0 -1
76.9000015258789 89 -10.355999946594238 0 -1
77.30000305175781 85.5999984741211 -10.857000350952148 0 -1
76.19999694824219 82 -11.515000343322754 0 -1
79.0999984741211 85.80000305175781 -9.88700008392334 0 -1
79 84.0999984741211 -8.932000160217285 0 -1
79.4000015258789 71.4000015258789 18.22599983215332 1 -1
75.19999694824219 88.4000015258789 -10.968999862670898 0 -1
79.5999984741211 73.0999984741211 17.00200080871582 1 -1
78.4000015258789 72.9000015258789 18.263999938964844 1 -1
71.69999694824219 75.4000015258789 -8.588000297546387 1 -1
72.80000305175781 86.4000015258789 -9.89799976348877 0 -1
76.80000305175781 87.69999694824219 -10.494000434875488 0 -1
79.69999694824219 86.5 -9.732000350952148 0 -1
72.5 82.80000305175781 -10.48799991607666 0 -1
71.0999984741211 71.19999694824219 13.645000457763672 1 -1
74.4000015258789 82.5999984741211 -11.095999717712402 0 -1
78.69999694824219 78.4000015258789 17.922000885009766 1 -1
76.5999984741211 77.5 16.97599983215332 1 -1
75.80000305175781 87.5999984741211 -10.812999725341797 0 -1
74.69999694824219 73.69999694824219 12.661999702453613 1 -1
78.5 85.19999694824219 -9.935999870300293 0 -1
79.9000015258789 86 -9.583000183105469 0 -1
79.69999694824219 86.4000015258789 -9.718000411987305 0 -1
77.5 87.0999984741211 -10.779000282287598 0 -1
77 74.30000305175781 18.253999710083008 1 -1
72.69999694824219 84.5 -9.781999588012695 0 -1
76.69999694824219 72.5 13.598999977111816 1 -1
74.4000015258789 82.80000305175781 -10.991000175476074 0 -1
74.69999694824219 73.5999984741211 12.293999671936035 1 -1
72.5999984741211 88 -9.680000305175781 0 -1
78.9000015258789 83 -8.923999786376953 0 -1
79.19999694824219 83 -9.07800006866455 0 -1
72.69999694824219 84.5999984741211 -9.680999755859375 0 -1
79.9000015258789 85.80000305175781 -8.824000358581543 0 -1
75.19999694824219 88.19999694824219 -10.9350004196167 0 -1
78 75.19999694824219 17.158000946044922 1 -1
75.9000015258789 84.69999694824219 -10.324999809265137 0 -1
78.0999984741211 82.30000305175781 -9.836000442504883 0 -1
78.19999694824219 85.19999694824219 -10.121999740600586 0 -1
71.9000015258789 77.0999984741211 -8.829999923706055 1 -1
71.69999694824219 75.5 -8.609999656677246 1 -1
72.5 82.69999694824219 -10.630000114440918 0 -1
76.80000305175781 87.5999984741211 -10.435999870300293 0 -1
79.5999984741211 72.80000305175781 17.190000534057617 1 -1
72.80000305175781 86.5 -9.843999862670898 0 -1
75.69999694824219 71.19999694824219 13.645000457763672 1 -1
72.9000015258789 83.4000015258789 -9.890999794006348 0 -1
71.0999984741211 71.30000305175781 13.652999877929688 1 -1
76.9000015258789 88.9000015258789 -10.357999801635742 0 -1
75.19999694824219 88.30000305175781 -10.956000328063965 0 -1
74.4000015258789 82.69999694824219 -11.14799976348877 0 -1
75.80000305175781 87.69999694824219 -10.793000221252441 0 -1
72.9000015258789 83 -10.98900032043457 0 -1
72.0999984741211 71.5 21.02899932861328 1 -1
80 89 -7.658999919891357 0 -1
77.30000305175781 85.69999694824219 -10.91100025177002 0 -1
79.0999984741211 85.9000015258789 -9.89799976348877 0 -1
79.4000015258789 71.5 18.320999145507812 1 -1
75.9000015258789 84.5 -10.324999809265137 0 -1
77 74.4000015258789 18.509000778198242 1 -1
74.4000015258789 82.9000015258789 -10.937999725341797 0 -1
76.69999694824219 71.9000015258789 13.567999839782715 1 -1
78.0999984741211 85.69999694824219 -10.319999694824219 0 -1
78.4000015258789 72.80000305175781 17.489999771118164 1 -1
77.5 89 -9.815999984741211 0 -1
72.5 82.9000015258789 -10.741000175476074 0 -1
77.19999694824219 84.0999984741211 -9.954000473022461 0 -1
76.5999984741211 77.0999984741211 17.224000930786133 1 -1
79.19999694824219 83.0999984741211 -9.01200008392334 0 -1
75.19999694824219 88.0999984741211 -10.916999816894531 0 -1
77.30000305175781 85.80000305175781 -10.767999649047852 0 -1
71.9000015258789 77.30000305175781 -8.845000267028809 1 -1
77.4000015258789 79.9000015258789 -10.630000114440918 0 -1
72.0999984741211 71.5999984741211 21.43199920654297 1 -1
78 75.0999984741211 17.430999755859375 1 -1
75.9000015258789 84.5999984741211 -10.303000450134277 0 -1
72.80000305175781 86.0999984741211 -9.625 0 -1
78.69999694824219 78.5 17.812999725341797 1 -1
79.4000015258789 71.5999984741211 18.55500030517578 1 -1
79.69999694824219 86.30000305175781 -9.92300033569336 0 -1
79.5999984741211 72.9000015258789 17.00200080871582 1 -1
79.0999984741211 86 -9.902999877929688 0 -1
72.5999984741211 87.9000015258789 -9.822999954223633 0 -1
76.19999694824219 82.0999984741211 -11.388999938964844 0 -1
75.69999694824219 71.30000305175781 13.614999771118164 1 -1
75.80000305175781 87.80000305175781 -10.812999725341797 0 -1
76.80000305175781 88 -10.192999839782715 0 -1
71.9000015258789 77.19999694824219 -8.84000015258789 1 -1
71.0999984741211 71.4000015258789 13.664999961853027 1 -1
78.5 85.0999984741211 -9.861000061035156 0 -1
74.69999694824219 73.5 12.072999954223633 1 -1
77 74.5999984741211 18.128000259399414 1 -1
72.69999694824219 84.69999694824219 -9.564000129699707 0 -1
75.9000015258789 84.9000015258789 -10.673999786376953 0 -1
76.5999984741211 77.19999694824219 17.250999450683594 1 -1
77 74.5 18.065000534057617 1 -1
76.69999694824219 71.80000305175781 13.574000358581543 1 -1
78.5 85 -9.935999870300293 0 -1
78 74.9000015258789 17.538999557495117 1 -1
80 88.0999984741211 -8.935999870300293 0 -1
76.19999694824219 82.30000305175781 -11.388999938964844 0 -1
77.5 88.9000015258789 -9.859999656677246 0 -1
79.9000015258789 85.19999694824219 -8.911999702453613 0 -1
77.4000015258789 80.0999984741211 -10.5 0 -1
77.19999694824219 84.19999694824219 -9.776000022888184 0 -1
79.0999984741211 85 -9.564000129699707 0 -1
72.69999694824219 85.30000305175781 -9.352999687194824 0 -1
79 84.9000015258789 -9.479999542236328 0 -1
76.9000015258789 88.80000305175781 -10.355999946594238 0 -1
74.69999694824219 71.9000015258789 13.65999984741211 1 -1
72.9000015258789 83.0999984741211 -10.991000175476074 0 -1
72.80000305175781 86.19999694824219 -9.656000137329102 0 -1
76.19999694824219 82.19999694824219 -11.430999755859375 0 -1
75.69999694824219 71.4000015258789 13.605999946594238 1 -1
78.9000015258789 83.80000305175781 -9.291999816894531 0 -1
77.4000015258789 80 -10.60099983215332 0 -1
72.5999984741211 86.19999694824219 -9.562000274658203 0 -1
79.0999984741211 85.0999984741211 -9.581999778747559 0 -1
79.9000015258789 85 -8.793000221252441 0 -1
76.9000015258789 88.5999984741211 -10.468999862670898 0 -1
79.19999694824219 83.19999694824219 -8.960000038146973 0 -1
78.4000015258789 73.19999694824219 18.416000366210938 1 -1
71.9000015258789 76.4000015258789 -8.770999908447266 1 -1
78.4000015258789 73.0999984741211 18.263999938964844 1 -1
75.80000305175781 87.9000015258789 -10.753000259399414 0 -1
71.9000015258789 76.30000305175781 -8.741000175476074 1 -1
77 74.69999694824219 18.065000534057617 1 -1
73.69999694824219 74.19999694824219 -8.717000007629395 1 -1
78.0999984741211 85.5999984741211 -10.336999893188477 0 -1
77.19999694824219 84 -9.776000022888184 0 -1
80 88.30000305175781 -8.842000007629395 0 -1
78.5 85.5 -9.979000091552734 0 -1
77.30000305175781 85.9000015258789 -10.831000328063965 0 -1
76.80000305175781 87.9000015258789 -10.371000289916992 0 -1
76.5999984741211 77.30000305175781 17.224000930786133 1 -1
79.69999694824219 86.69999694824219 -9.741999626159668 0 -1
72.5 83 -10.758999824523926 0 -1
76.69999694824219 71.69999694824219 13.543000221252441 1 -1
78 75 17.031999588012695 1 -1
78.69999694824219 78.5999984741211 17.922000885009766 1 -1
77.4000015258789 80.19999694824219 -10.359000205993652 0 -1
71 75.9000015258789 -8.303999900817871 1 -1
78.0999984741211 85.9000015258789 -10.369000434875488 0 -1
77.5 88.80000305175781 -9.991000175476074 0 -1
79.5999984741211 73.5 17.24799919128418 1 -1
78.5 85.4000015258789 -9.909000396728516 0 -1
79.69999694824219 86.5999984741211 -9.737000465393066 0 -1
77.30000305175781 86 -10.85200023651123 0 -1
76.5999984741211 76.80000305175781 17.02199935913086 1 -1
75.69999694824219 71.5 13.598999977111816 1 -1
79.9000015258789 85.0999984741211 -8.927000045776367 0 -1
76.9000015258789 88.69999694824219 -10.501999855041504 0 -1
71.9000015258789 76.5 -8.781000137329102 1 -1
79.19999694824219 83.30000305175781 -8.920999526977539 0 -1
76.19999694824219 82.4000015258789 -11.29800033569336 0 -1
78 74.80000305175781 17.569000244140625 1 -1
80 88.19999694824219 -8.901000022888184 0 -1
77.80000305175781 78.80000305175781 -10.505000114440918 0 -1
75.80000305175781 88 -10.77299976348877 0 -1
72.69999694824219 85.4000015258789 -9.3100004196167 0 -1
72.9000015258789 82.69999694824219 -10.970999717712402 0 -1
79 84.80000305175781 -9.428999900817871 0 -1
74.69999694824219 71.80000305175781 13.585000038146973 1 -1
72.9000015258789 82.80000305175781 -10.972000122070312 0 -1
79.9000015258789 85.4000015258789 -8.911999702453613 0 -1
72.80000305175781 87.9000015258789 -9.758999824523926 0 -1
78.9000015258789 83.9000015258789 -9.293000221252441 0 -1
76.9000015258789 88.5 -10.062999725341797 0 -1
76.69999694824219 72.0999984741211 13.623000144958496 1 -1
72.69999694824219 85.5 -9.312000274658203 0 -1
77.19999694824219 84.9000015258789 -10.562999725341797 0 -1
78.19999694824219 82.5 -9.654999732971191 0 -1
80 88.4000015258789 -8.479000091552734 0 -1
75.9000015258789 84.80000305175781 -10.303000450134277 0 -1
77.30000305175781 85 -10.611000061035156 0 -1
74.69999694824219 71.69999694824219 13.618000030517578 1 -1
78.0999984741211 86 -10.503000259399414 0 -1
72.5999984741211 86.0999984741211 -9.53499984741211 0 -1
78.4000015258789 73 18.416000366210938 1 -1
75.69999694824219 71.5999984741211 13.597000122070312 1 -1
76.5999984741211 76.9000015258789 17.304000854492188 1 -1
71.0999984741211 71.69999694824219 13.678999900817871 1 -1
79.5999984741211 73.69999694824219 17.24799919128418 1 -1
79.0999984741211 85.19999694824219 -9.633000373840332 0 -1
77.30000305175781 85.0999984741211 -10.663000106811523 0 -1
77.80000305175781 78.5999984741211 -10.220000267028809 0 -1
77.5 88.69999694824219 -9.947999954223633 0 -1
78.80000305175781 80.4000015258789 -10.375 0 -1
72.5 83.0999984741211 -9.994000434875488 0 -1
76.80000305175781 87.19999694824219 -10.664999961853027 0 -1
72.5 83.30000305175781 -9.994000434875488 0 -1
79.19999694824219 83.4000015258789 -8.880999565124512 0 -1
76.19999694824219 82.5 -11.255000114440918 0 -1
78.5 85.30000305175781 -9.880000114440918 0 -1
72.5999984741211 86.4000015258789 -9.723999977111816 0 -1
79.0999984741211 85.30000305175781 -9.684000015258789 0 -1
78.5999984741211 78.0999984741211 17.590999603271484 1 -1
79.69999694824219 87 -9.949999809265137 0 -1
79.5999984741211 73.5999984741211 17.235000610351562 1 -1
78.0999984741211 85.80000305175781 -10.336999893188477 0 -1
78.4000015258789 72.4000015258789 16.381999969482422 1 -1
75.80000305175781 87.0999984741211 -10.847999572753906 0 -1
79.9000015258789 85.5 -8.836000442504883 0 -1
72.69999694824219 85 -9.46399974822998 0 -1
76.69999694824219 72 13.609000205993652 1 -1
77 74.80000305175781 18.14900016784668 1 -1
78.5 85.69999694824219 -9.979000091552734 0 -1
78.9000015258789 83.5 -9.21500015258789 0 -1
79.5999984741211 73.30000305175781 17.26099967956543 1 -1
72.69999694824219 85.0999984741211 -9.519000053405762 0 -1
79 84.69999694824219 -9.397000312805176 0 -1
77.4000015258789 80.30000305175781 -10.406000137329102 0 -1
72.80000305175781 88 -9.732999801635742 0 -1
78 74.69999694824219 17.875999450683594 1 -1
76.5999984741211 77 17.29400062561035 1 -1
77.80000305175781 78.69999694824219 -10.197999954223633 0 -1
77.5 88.5999984741211 -9.991000175476074 0 -1
72.9000015258789 82.9000015258789 -10.996000289916992 0 -1
79.19999694824219 83.5 -8.920999526977539 0 -1
72.5 83.19999694824219 -10.734000205993652 0 -1
74.69999694824219 72.0999984741211 13.62399959564209 1 -1
79.9000015258789 85.30000305175781 -8.927000045776367 0 -1
77.19999694824219 84.80000305175781 -10.454000473022461 0 -1
72.5999984741211 86.5 -9.85200023651123 0 -1
76.9000015258789 88.4000015258789 -9.897000312805176 0 -1
71.9000015258789 76.5999984741211 -8.770999908447266 1 -1
80 88.5 -8.083999633789062 0 -1
76.80000305175781 87.0999984741211 -10.871000289916992 0 -1
78.5999984741211 78.19999694824219 17.642000198364258 1 -1
77 75 18.14900016784668 1 -1
78.9000015258789 83.69999694824219 -9.293000221252441 0 -1
74.69999694824219 72 13.621999740600586 1 -1
79 84.5 -8.991999626159668 0 -1
77 74.9000015258789 18.107999801635742 1 -1
75.80000305175781 87.19999694824219 -10.82800006866455 0 -1
78.80000305175781 80.30000305175781 -10.350000381469727 0 -1
78 74.5 17.875999450683594 1 -1
72.5999984741211 86.30000305175781 -9.71399974822998 0 -1
72.80000305175781 87.5999984741211 -9.92199993133545 0 -1
78.4000015258789 72.30000305175781 16.518999099731445 1 -1
71 77.5999984741211 -8.357999801635742 1 -1
79.69999694824219 86.9000015258789 -9.968999862670898 0 -1
76.5999984741211 76.5999984741211 19.724000930786133 1 -1
79.0999984741211 85.4000015258789 -9.633000373840332 0 -1
79.19999694824219 83.5999984741211 -8.880999565124512 0 -1
72.5 83.4000015258789 -9.918000221252441 0 -1
79.4000015258789 71 17.79599952697754 1 -1
78.80000305175781 80.19999694824219 -10.163999557495117 0 -1
78.0999984741211 85.19999694824219 -9.965999603271484 0 -1
78.19999694824219 82.30000305175781 -9.79800033569336 0 -1
77.5 88.5 -10.140000343322754 0 -1
78.4000015258789 72.19999694824219 16.773000717163086 1 -1
76.69999694824219 73.4000015258789 18.07200050354004 1 -1
79.0999984741211 85.5 -9.684000015258789 0 -1
79.69999694824219 86.80000305175781 -9.75 0 -1
80 89.69999694824219 -7.400000095367432 0 -1
76.9000015258789 88.19999694824219 -10.178000450134277 0 -1
79.4000015258789 71.0999984741211 18.28499984741211 1 -1
71.9000015258789 76.69999694824219 -8.781000137329102 1 -1
78.5999984741211 78.30000305175781 17.5939998626709 1 -1
77 75.0999984741211 18.107999801635742 1 -1
71 77.80000305175781 -8.437000274658203 1 -1
76.19999694824219 82.5999984741211 -11.312999725341797 0 -1
78.5 85.5999984741211 -9.982000350952148 0 -1
79 84.5999984741211 -8.95199966430664 0 -1
78.9000015258789 83.5999984741211 -9.295999526977539 0 -1
76.80000305175781 87.5 -10.609000205993652 0 -1
72.9000015258789 82.5 -10.982000350952148 0 -1
78 74.5999984741211 17.910999298095703 1 -1
78.0999984741211 85 -9.446999549865723 0 -1
75.80000305175781 87.30000305175781 -10.798999786376953 0 -1
72.69999694824219 85.19999694824219 -9.46399974822998 0 -1
72.80000305175781 87.69999694824219 -9.923999786376953 0 -1
79 85.4000015258789 -9.968000411987305 0 -1
76.5999984741211 76.69999694824219 17.16900062561035 1 -1
71 77.69999694824219 -8.357000350952148 1 -1
79.9000015258789 84.69999694824219 -8.89900016784668 0 -1
72.69999694824219 85.80000305175781 -9.21399974822998 0 -1
75.9000015258789 84.4000015258789 -10.390999794006348 0 -1
78.9000015258789 82.30000305175781 -9.515000343322754 0 -1
79.19999694824219 83.69999694824219 -9.282999992370605 0 -1
76.19999694824219 82.80000305175781 -11.312999725341797 0 -1
74.69999694824219 72.4000015258789 13.621999740600586 1 -1
79.5999984741211 73.4000015258789 17.27199935913086 1 -1
72.9000015258789 82.5999984741211 -10.986000061035156 0 -1
76.69999694824219 73.30000305175781 17.680999755859375 1 -1
77.5 88.4000015258789 -10.194000244140625 0 -1
80 89.5999984741211 -7.392000198364258 0 -1
76.9000015258789 88.30000305175781 -9.977999687194824 0 -1
72.5999984741211 86.69999694824219 -9.85200023651123 0 -1
79.0999984741211 84.5 -8.949000358581543 0 -1
78.4000015258789 72.69999694824219 17.822999954223633 1 -1
78.19999694824219 82.4000015258789 -9.836000442504883 0 -1
71.9000015258789 75.9000015258789 -8.770999908447266 1 -1
78 74.4000015258789 17.902999877929688 1 -1
76.19999694824219 82.69999694824219 -11.282999992370605 0 -1
77 75.19999694824219 18.066999435424805 1 -1
76.80000305175781 87.4000015258789 -10.552000045776367 0 -1
78.5999984741211 77.9000015258789 17.618000030517578 1 -1
79.0999984741211 84.5999984741211 -8.984999656677246 0 -1
71 77.4000015258789 -8.357999801635742 1 -1
72.5 83.5 -9.897000312805176 0 -1
75.80000305175781 87.4000015258789 -10.82800006866455 0 -1
79.9000015258789 84.5 -8.82699966430664 0 -1
78.80000305175781 80.0999984741211 -10.190999984741211 0 -1
78.5 86 -9.989999771118164 0 -1
78.0999984741211 85.0999984741211 -10.192999839782715 0 -1
79.5999984741211 72 18.43400001525879 1 -1
78.4000015258789 72.5999984741211 17.489999771118164 1 -1
71.9000015258789 75.80000305175781 -8.746999740600586 1 -1
79.69999694824219 87.19999694824219 -9.911999702453613 0 -1
76.9000015258789 88.0999984741211 -10.314000129699707 0 -1
72.80000305175781 87.80000305175781 -9.732999801635742 0 -1
79 85.5 -9.793000221252441 0 -1
77.5 88.30000305175781 -10.140000343322754 0 -1
78.80000305175781 80 -10.163999557495117 0 -1
80 89.80000305175781 -7.3460001945495605 0 -1
78.9000015258789 82.19999694824219 -9.562000274658203 0 -1
79.19999694824219 83.80000305175781 -9.085000038146973 0 -1
78.9000015258789 82.4000015258789 -9.411999702453613 0 -1
76.19999694824219 82.9000015258789 -11.222999572753906 0 -1
78.5 85.9000015258789 -9.987000465393066 0 -1
78.0999984741211 85.4000015258789 -10.394000053405762 0 -1
77.30000305175781 85.5 -10.91100025177002 0 -1
76.69999694824219 73.69999694824219 18.312000274658203 1 -1
72.5 83.69999694824219 -9.897000312805176 0 -1
72.80000305175781 87.30000305175781 -9.920000076293945 0 -1
76.5999984741211 76.30000305175781 19.268999099731445 1 -1
78 74.30000305175781 18.375 1 -1
72.69999694824219 85.9000015258789 -9.246999740600586 0 -1
76.80000305175781 87.30000305175781 -10.609000205993652 0 -1
79.9000015258789 84.5999984741211 -8.758000373840332 0 -1
72.9000015258789 82.19999694824219 -10.968000411987305 0 -1
71.9000015258789 76 -8.753000259399414 1 -1
79 85.30000305175781 -9.633000373840332 0 -1
75.80000305175781 87.5 -10.739999771118164 0 -1
76.9000015258789 90 -8.946999549865723 0 -1
78.5999984741211 78 17.642000198364258 1 -1
74.69999694824219 72.30000305175781 13.623000144958496 1 -1
72.5999984741211 86.5999984741211 -9.894000053405762 0 -1
72.9000015258789 82.30000305175781 -10.982000350952148 0 -1
75.9000015258789 84.30000305175781 -10.369000434875488 0 -1
77.5 88.19999694824219 -10.300999641418457 0 -1
74.69999694824219 72.19999694824219 13.62600040435791 1 -1
79.19999694824219 83.9000015258789 -9.034000396728516 0 -1
79.9000015258789 84.9000015258789 -8.82800006866455 0 -1
77.30000305175781 84.5 -9.800999641418457 0 -1
72.69999694824219 86 -9.21399974822998 0 -1
76.5999984741211 76.4000015258789 19.724000930786133 1 -1
78.0999984741211 85.5 -10.319999694824219 0 -1
79.0999984741211 84.69999694824219 -8.949000358581543 0 -1
76.69999694824219 73.5999984741211 18.07200050354004 1 -1
79.69999694824219 87.0999984741211 -9.968999862670898 0 -1
78.4000015258789 72.5 16.45400047302246 1 -1
72.5 83.5999984741211 -9.836000442504883 0 -1
72.80000305175781 87.4000015258789 -9.92300033569336 0 -1
79.69999694824219 87.5 -9.892999649047852 0 -1
78.19999694824219 82.0999984741211 -9.87399959564209 0 -1
78.80000305175781 79.9000015258789 -10.116000175476074 0 -1
76.80000305175781 86.69999694824219 -10.940999984741211 0 -1
77.30000305175781 84.5999984741211 -9.765999794006348 0 -1
71.9000015258789 76.0999984741211 -8.770999908447266 1 -1
78.5999984741211 78.5999984741211 17.53700065612793 1 -1
78.4000015258789 71.9000015258789 16.617000579833984 1 -1
80 89.9000015258789 -6.982999801635742 1 -1
78.0999984741211 85.30000305175781 -10.321000099182129 0 -1
77 75.30000305175781 18.115999221801758 1 -1
78.5 85.80000305175781 -9.982000350952148 0 -1
78.9000015258789 82 -9.609000205993652 0 -1
75.80000305175781 86.5999984741211 -10.928999900817871 0 -1
71 77.5 -8.357000350952148 1 -1
79.5999984741211 72.0999984741211 18.25200080871582 1 -1
77.5 88.0999984741211 -10.248000144958496 0 -1
76.5999984741211 76.5 19.719999313354492 1 -1
72.5 83.80000305175781 -9.71399974822998 0 -1
74.30000305175781 73.9000015258789 12.64900016784668 1 -1
74.69999694824219 72.69999694824219 13.637999534606934 1 -1
78 74.19999694824219 18.134000778198242 1 -1
79 85.19999694824219 -9.581999778747559 0 -1
72.69999694824219 85.5999984741211 -9.343999862670898 0 -1
72.5999984741211 87 -9.993000030517578 0 -1
72.9000015258789 82.4000015258789 -10.986000061035156 0 -1
75.9000015258789 85.69999694824219 -11.22700023651123 0 -1
78.80000305175781 81.9000015258789 -9.723999977111816 0 -1
79.5999984741211 71.80000305175781 18.917999267578125 1 -1
72.80000305175781 87.5 -9.923999786376953 0 -1
74.69999694824219 72.5999984741211 13.642999649047852 1 -1
79.0999984741211 84.80000305175781 -8.97700023651123 0 -1
78.5 84.19999694824219 -9.112000465393066 0 -1
76.80000305175781 86.5999984741211 -10.97599983215332 0 -1
76.9000015258789 89.9000015258789 -9.85099983215332 0 -1
76.69999694824219 73.5 18.312000274658203 1 -1
78.5999984741211 78.69999694824219 17.562000274658203 1 -1
77 75.5 18.493999481201172 1 -1
79.19999694824219 82 -9.555000305175781 0 -1
79 85 -9.428999900817871 0 -1
78.5 84.0999984741211 -9.02299976348877 0 -1
79.0999984741211 84.9000015258789 -9.51200008392334 0 -1
79.5999984741211 71.69999694824219 18.430999755859375 1 -1
73.5999984741211 76.4000015258789 -10.140999794006348 1 -1
79.9000015258789 84.80000305175781 -8.86400032043457 0 -1
78 74 18.054000854492188 1 -1
77 75.4000015258789 18.054000854492188 1 -1
71 71.69999694824219 13.668000221252441 1 -1
75.80000305175781 86.69999694824219 -10.956000328063965 0 -1
80 90 -6.861000061035156 1 -1
72.5999984741211 86.80000305175781 -9.894000053405762 0 -1
79.69999694824219 87.4000015258789 -9.911999702453613 0 -1
77.30000305175781 84.69999694824219 -10.454000473022461 0 -1
72.80000305175781 87.0999984741211 -9.914999961853027 0 -1
76.69999694824219 72.9000015258789 17.597999572753906 1 -1
76.19999694824219 83.0999984741211 -11.222999572753906 0 -1
78.4000015258789 71.80000305175781 17.54800033569336 1 -1
79.69999694824219 87.30000305175781 -9.892999649047852 0 -1
80 89.19999694824219 -7.556000232696533 0 -1
79.5999984741211 71.9000015258789 18.25200080871582 1 -1
75.9000015258789 85.5999984741211 -10.991999626159668 0 -1
79.9000015258789 84.0999984741211 -8.753000259399414 0 -1
77.69999694824219 80.30000305175781 -10.321999549865723 0 -1
78.0999984741211 84.69999694824219 -9.857000350952148 0 -1
78.9000015258789 82.0999984741211 -9.656000137329102 0 -1
76.5999984741211 76.0999984741211 19.257999420166016 1 -1
79.19999694824219 82.0999984741211 -9.598999977111816 0 -1
77 75.5999984741211 18.19099998474121 1 -1
76.80000305175781 87 -10.836000442504883 0 -1
78.4000015258789 71.69999694824219 17.749000549316406 1 -1
79 85.0999984741211 -9.479999542236328 0 -1
78.19999694824219 83.80000305175781 -9.35200023651123 0 -1
72.5 83.9000015258789 -9.774999618530273 0 -1
74.30000305175781 73.80000305175781 12.645999908447266 1 -1
72.9000015258789 82 -10.998000144958496 0 -1
77.5 90 -8.932999610900879 0 -1
75.5999984741211 78.0999984741211 17.03700065612793 1 -1
71.9000015258789 76.19999694824219 -8.75100040435791 1 -1
78 74.0999984741211 18.375 1 -1
72.69999694824219 85.69999694824219 -9.246999740600586 0 -1
79 85.9000015258789 -9.88700008392334 0 -1
78.0999984741211 84.5 -9.326000213623047 0 -1
74.69999694824219 72.5 13.625 1 -1
73.5999984741211 76.30000305175781 -10.02400016784668 1 -1
78.19999694824219 83.9000015258789 -9.28499984741211 0 -1
72.5999984741211 86.9000015258789 -9.892000198364258 0 -1
72.9000015258789 82.0999984741211 -10.972999572753906 0 -1
79.0999984741211 84 -9.291999816894531 0 -1
71.5 83.9000015258789 -9.979999542236328 0 -1
75.80000305175781 86.80000305175781 -10.875 0 -1
78.9000015258789 82.80000305175781 -9.298999786376953 0 -1
76.9000015258789 89.80000305175781 -8.82800006866455 0 -1
74.5 73.0999984741211 13.637999534606934 1 -1
76.69999694824219 72.80000305175781 17.756999969482422 1 -1
75.9000015258789 85.9000015258789 -11.22700023651123 0 -1
77.30000305175781 84.80000305175781 -10.506999969482422 0 -1
79.9000015258789 84.19999694824219 -8.75 0 -1
78.5 84 -9.069000244140625 0 -1
73.5999984741211 76.5 -10.17199993133545 1 -1
76.19999694824219 83.30000305175781 -11.079000473022461 0 -1
77.5 89.9000015258789 -8.935999870300293 0 -1
77.30000305175781 84.9000015258789 -10.454000473022461 0 -1
72.80000305175781 87.19999694824219 -9.92300033569336 0 -1
78 73.9000015258789 17.83099937438965 1 -1
79.69999694824219 87.80000305175781 -9.717000007629395 0 -1
80 89.0999984741211 -7.51800012588501 0 -1
76.80000305175781 86.9000015258789 -10.871000289916992 0 -1
79.19999694824219 82.19999694824219 -9.555000305175781 0 -1
77.19999694824219 85 -10.642999649047852 0 -1
76.5999984741211 76.19999694824219 19.280000686645508 1 -1
74.5999984741211 71.9000015258789 13.607999801635742 1 -1
76.9000015258789 89.5999984741211 -10.37399959564209 0 -1
79.69999694824219 87.69999694824219 -9.668999671936035 0 -1
78.5999984741211 78.4000015258789 17.594999313354492 1 -1
75.9000015258789 86 -11.288000106811523 0 -1
75.5999984741211 78 17.038999557495117 1 -1
80 89.30000305175781 -7.473999977111816 0 -1
71.5999984741211 76.5999984741211 -8.642000198364258 1 -1
78.9000015258789 82.69999694824219 -9.243000030517578 0 -1
79.9000015258789 84 -9.01200008392334 0 -1
