VERSION .7
FIELDS x y z label object
SIZE 4 4 4 4 4
TYPE F F F I I
COUNT 1 1 1 1 1
WIDTH 895
HEIGHT 1
POINTS 895
VIEWPOINT 0 0 0 1 0 0 0
DATA ascii
73.0999984741211 83.4000015258789 -10.77400016784668 0 -1
74.0999984741211 72.5 13.852999687194824 1 -1
74.69999694824219 79.5 17.011999130249023 1 -1
76.5 77.9000015258789 17.601999282836914 1 -1
74 86.9000015258789 -9.904999732971191 0 -1
72.5 77.19999694824219 -8.982999801635742 0 -1
71.5 75.30000305175781 -8.196999549865723 0 -1
72.80000305175781 76.30000305175781 -8.79699993133545 0 -1
75.80000305175781 80.0999984741211 16.19099998474121 1 -1
72.69999694824219 80.69999694824219 14.454000473022461 1 -1
73.4000015258789 74.30000305175781 12.798999786376953 1 -1
73.5 71.9000015258789 13.800999641418457 1 -1
77.30000305175781 78.0999984741211 16.76099967956543 1 -1
77.5 78.19999694824219 16.81599998474121 1 -1
75.9000015258789 80.30000305175781 15.810999870300293 1 -1
79.69999694824219 78.5999984741211 16.93000030517578 1 -1
79.5 80.4000015258789 -9.692999839782715 0 -1
76.0999984741211 85.5999984741211 -9.74899959564209 0 -1
74.30000305175781 84.4000015258789 -10.87600040435791 0 -1
71.5 88.69999694824219 -9.411999702453613 0 -1
76.69999694824219 80.4000015258789 16.121999740600586 1 -1
75.0999984741211 79.4000015258789 15.592000007629395 1 -1
76.19999694824219 78.5 17.915000915527344 1 -1
79.30000305175781 75.4000015258789 -8.392000198364258 0 -1
77.5999984741211 75.5999984741211 -8.805999755859375 0 -1
74.0999984741211 89.9000015258789 -9.954999923706055 0 -1
74.19999694824219 84.80000305175781 -10.925000190734863 0 -1
73.80000305175781 81.30000305175781 15.036999702453613 1 -1
74.69999694824219 79.5999984741211 15.258000373840332 1 -1
74.5999984741211 76.5 -9.395999908447266 0 -1
79.5999984741211 75.0999984741211 -8.079000473022461 0 -1
75.19999694824219 81.5 -11.48900032043457 0 -1
76.4000015258789 80.9000015258789 -11.251999855041504 0 -1
77.5999984741211 73.5999984741211 20.667999267578125 1 -1
77.69999694824219 87.9000015258789 -9.949000358581543 0 -1
79.4000015258789 74.19999694824219 23.323999404907227 1 -1
74.9000015258789 89.30000305175781 -9.99899959564209 0 -1
72.4000015258789 72.5 13.878999710083008 1 -1
71.9000015258789 72.5999984741211 13.892999649047852 1 -1
75.0999984741211 74.30000305175781 -8.449999809265137 0 -1
78.69999694824219 88.4000015258789 -9.819000244140625 0 -1
78.9000015258789 78.5 17.02899932861328 1 -1
75.5999984741211 71.30000305175781 13.82800006866455 1 -1
71.5999984741211 84.69999694824219 -9.939000129699707 0 -1
73.30000305175781 78.5 19.90399932861328 1 -1
78.0999984741211 74.80000305175781 21.695999145507812 1 -1
76.0999984741211 73.30000305175781 11.961999893188477 1 -1
71.9000015258789 82 13.428000450134277 1 -1
78.9000015258789 75.4000015258789 -8.520000457763672 0 -1
75.69999694824219 74 12.845999717712402 1 -1
80 81.5 -9.890999794006348 0 -1
72.30000305175781 83.0999984741211 12.670999526977539 1 -1
76.30000305175781 80.19999694824219 16.145999908447266 1 -1
71.69999694824219 84.9000015258789 -9.8149995803833 0 -1
76.5999984741211 83.9000015258789 -10.97700023651123 0 -1
79.30000305175781 75.5 -8.553000450134277 0 -1
73.80000305175781 81.4000015258789 14.640999794006348 1 -1
73.9000015258789 74.30000305175781 12.904000282287598 1 -1
75.5 80.0999984741211 15.696999549865723 1 -1
77.80000305175781 88.0999984741211 -9.673999786376953 0 -1
78.30000305175781 73.19999694824219 21.139999389648438 1 -1
76.80000305175781 76.19999694824219 -9.227999687194824 0 -1
73.5999984741211 87.0999984741211 -9.991999626159668 0 -1
73 88.5 -9.710000038146973 0 -1
78.30000305175781 73.0999984741211 21.351999282836914 1 -1
77.30000305175781 78.19999694824219 16.742000579833984 1 -1
79 76.4000015258789 16.7189998626709 1 -1
79.19999694824219 71.30000305175781 13.802000045776367 1 -1
73.69999694824219 88.9000015258789 -9.982999801635742 0 -1
71.5999984741211 79.5 -9.902000427246094 0 -1
77.5999984741211 73.69999694824219 21.035999298095703 1 -1
71 86 -9.746999740600586 0 -1
77.9000015258789 84.5 -9.73900032043457 0 -1
72.80000305175781 81.9000015258789 13.916000366210938 1 -1
74.5 77.69999694824219 -9.663000106811523 0 -1
73.0999984741211 72.0999984741211 13.845000267028809 1 -1
77.9000015258789 79.5999984741211 16.361000061035156 1 -1
76 71.80000305175781 13.82800006866455 1 -1
76.4000015258789 81 -11.258000373840332 0 -1
75.4000015258789 71.5999984741211 13.83899974822998 1 -1
80 77.19999694824219 16.767000198364258 1 -1
75.5999984741211 71.4000015258789 13.810999870300293 1 -1
72.30000305175781 71.5 13.850000381469727 1 -1
75.0999984741211 74.19999694824219 12.211999893188477 1 -1
74.30000305175781 84.5999984741211 -10.930000305175781 0 -1
71.9000015258789 72.69999694824219 13.895000457763672 1 -1
76.9000015258789 75 21.108999252319336 1 -1
72.80000305175781 76.4000015258789 -8.795000076293945 0 -1
71 85.9000015258789 -9.789999961853027 0 -1
72 71.0999984741211 13.862000465393066 1 -1
77.19999694824219 79.5999984741211 16.770999908447266 1 -1
72.5 77.4000015258789 -8.940999984741211 0 -1
78.5999984741211 89.0999984741211 -8.694000244140625 0 -1
74.19999694824219 80.80000305175781 14.550999641418457 1 -1
72.69999694824219 80.0999984741211 18.731000900268555 1 -1
74.80000305175781 86.30000305175781 -10.409000396728516 0 -1
75.30000305175781 78.4000015258789 16.158000946044922 1 -1
78.5 73.30000305175781 21.753000259399414 1 -1
73.19999694824219 72.9000015258789 13.859999656677246 1 -1
71.5999984741211 79.19999694824219 -9.970000267028809 0 -1
73.5 84.19999694824219 -10.706999778747559 0 -1
73.30000305175781 78.4000015258789 20.017000198364258 1 -1
76.69999694824219 77.4000015258789 16.634000778198242 1 -1
78.0999984741211 72.9000015258789 22.06599998474121 1 -1
78.9000015258789 74.0999984741211 -7.933000087738037 0 -1
76 86.5 -10.300999641418457 0 -1
75 89 -10.572999954223633 0 -1
72.9000015258789 81.5 13.973999977111816 1 -1
73 88.4000015258789 -9.723999977111816 0 -1
73.9000015258789 74.19999694824219 12.894000053405762 1 -1
75.19999694824219 81.30000305175781 15 1 -1
71.5 88.5 -9.210000038146973 0 -1
72.4000015258789 84.19999694824219 -10.378999710083008 0 -1
79.5 79.30000305175781 17.111000061035156 1 -1
75.80000305175781 80.19999694824219 15.95300006866455 1 -1
75 73.5999984741211 -8.079000473022461 0 -1
79.9000015258789 76.5 17.461000442504883 1 -1
77.9000015258789 84.5999984741211 -9.829000473022461 0 -1
75.9000015258789 79.9000015258789 16.02199935913086 1 -1
72.19999694824219 82.9000015258789 14.321999549865723 1 -1
72.0999984741211 81.4000015258789 -10.652999877929688 0 -1
77.4000015258789 86.69999694824219 -10.512999534606934 0 -1
78.80000305175781 77.19999694824219 18.034000396728516 1 -1
77.9000015258789 79.5 16.55699920654297 1 -1
71.30000305175781 73.0999984741211 13.875 1 -1
77.4000015258789 77.4000015258789 17.224000930786133 1 -1
72.5999984741211 80.5999984741211 -10.501999855041504 0 -1
79.0999984741211 76.30000305175781 16.7189998626709 1 -1
74.5 76.9000015258789 -9.581000328063965 0 -1
78.5 73.4000015258789 12.343000411987305 1 -1
74.9000015258789 72.5 13.833000183105469 1 -1
73.0999984741211 83.30000305175781 -10.72700023651123 0 -1
77.80000305175781 74.9000015258789 21.69099998474121 1 -1
71.80000305175781 79.9000015258789 -9.951000213623047 0 -1
77.0999984741211 87.5999984741211 -9.986000061035156 0 -1
74.4000015258789 78.30000305175781 15.46399974822998 1 -1
76 86.30000305175781 -10.300999641418457 0 -1
75.69999694824219 79.19999694824219 16.148000717163086 1 -1
74 87 -10.260000228881836 0 -1
72.69999694824219 80 18.735000610351562 1 -1
78.69999694824219 88.19999694824219 -9.868000030517578 0 -1
79.4000015258789 78.4000015258789 17.010000228881836 1 -1
72.0999984741211 81.30000305175781 -10.598999977111816 0 -1
72 71 13.871000289916992 1 -1
77.5 78.0999984741211 16.76099967956543 1 -1
76.0999984741211 85.9000015258789 -9.890999794006348 0 -1
72.4000015258789 84.0999984741211 -10.388999938964844 0 -1
79.80000305175781 87.0999984741211 -9.762999534606934 0 -1
74.9000015258789 89.9000015258789 -9.961999893188477 0 -1
75.19999694824219 81.4000015258789 14.963000297546387 1 -1
76.0999984741211 86 -9.86299991607666 0 -1
71.9000015258789 72.5 13.937000274658203 1 -1
75 73.69999694824219 -8.244000434875488 0 -1
76.9000015258789 74.80000305175781 21.108999252319336 1 -1
75.69999694824219 73.9000015258789 12.829999923706055 1 -1
79.9000015258789 76.30000305175781 17.461000442504883 1 -1
75.5999984741211 85.80000305175781 -10.09000015258789 0 -1
77.69999694824219 87.80000305175781 -10.401000022888184 0 -1
77.19999694824219 79.4000015258789 17.15999984741211 1 -1
75.9000015258789 75.19999694824219 -8.916999816894531 0 -1
72 72.19999694824219 13.87600040435791 1 -1
77 80.19999694824219 16.9950008392334 1 -1
79.30000305175781 76.4000015258789 17.351999282836914 1 -1
79.4000015258789 78.5 17.000999450683594 1 -1
76.80000305175781 74.80000305175781 20.844999313354492 1 -1
76.5999984741211 83.80000305175781 -10.918000221252441 0 -1
74.69999694824219 80.5 15.201000213623047 1 -1
72.69999694824219 75.5999984741211 -8.78600025177002 0 -1
75.5999984741211 71.19999694824219 13.824000358581543 1 -1
75.5 80.19999694824219 15.682999610900879 1 -1
75.4000015258789 83.5 -10.63599967956543 0 -1
78.30000305175781 88.5 -9.902999877929688 0 -1
73.5 72 13.819999694824219 1 -1
76.80000305175781 76.0999984741211 -9.180000305175781 0 -1
76.19999694824219 77.5999984741211 16.572999954223633 1 -1
79.5999984741211 76.5 17.19099998474121 1 -1
79.30000305175781 76.30000305175781 16.76099967956543 1 -1
73.5 84 -10.706999778747559 0 -1
77.4000015258789 77.19999694824219 16.83799934387207 1 -1
71.5999984741211 84.30000305175781 -9.925999641418457 0 -1
79.0999984741211 76.4000015258789 16.767000198364258 1 -1
74.80000305175781 86.69999694824219 -10.442000389099121 0 -1
79.19999694824219 71.19999694824219 13.772000312805176 1 -1
73.4000015258789 77.5 18.138999938964844 1 -1
80 77.30000305175781 16.785999298095703 1 -1
77.0999984741211 87.80000305175781 -9.986000061035156 0 -1
78 85.80000305175781 -9.708999633789062 0 -1
77.80000305175781 88.5 -9.998000144958496 0 -1
72.80000305175781 81.80000305175781 13.928000450134277 1 -1
73.69999694824219 89 -9.944999694824219 0 -1
73.0999984741211 72 13.836999893188477 1 -1
76 71.69999694824219 13.824999809265137 1 -1
74.4000015258789 75.30000305175781 -8.951000213623047 0 -1
78.19999694824219 75.80000305175781 -8.767000198364258 0 -1
72.69999694824219 75.69999694824219 -8.965999603271484 0 -1
72.5999984741211 80.4000015258789 -10.501999855041504 0 -1
74.69999694824219 80.4000015258789 15.220999717712402 1 -1
73.19999694824219 72.80000305175781 13.854000091552734 1 -1
72 72.30000305175781 13.86400032043457 1 -1
74.30000305175781 84.5 -10.892000198364258 0 -1
77.80000305175781 73.0999984741211 21.56599998474121 1 -1
76.69999694824219 77.5 16.7810001373291 1 -1
74.69999694824219 79.19999694824219 17.000999450683594 1 -1
74.5999984741211 76.0999984741211 -9.321000099182129 0 -1
71 85.5999984741211 -9.918000221252441 0 -1
72.80000305175781 76.5 -8.79699993133545 0 -1
77.9000015258789 84.9000015258789 -10.491999626159668 0 -1
74.19999694824219 84.19999694824219 -10.840999603271484 0 -1
80 81.5999984741211 -9.87399959564209 0 -1
75.19999694824219 81.19999694824219 15.07800006866455 1 -1
77.4000015258789 86.9000015258789 -10.701000213623047 0 -1
77.9000015258789 79.19999694824219 18.132999420166016 1 -1
75.0999984741211 79.5 15.795000076293945 1 -1
77.4000015258789 77.30000305175781 16.854000091552734 1 -1
78.9000015258789 74 -7.895999908447266 0 -1
72.19999694824219 82.80000305175781 14.36400032043457 1 -1
75.0999984741211 79.5999984741211 15.793999671936035 1 -1
73.5999984741211 87.19999694824219 -9.96500015258789 0 -1
73.19999694824219 82 -10.604999542236328 0 -1
78.0999984741211 75.19999694824219 -8.506999969482422 0 -1
78.5999984741211 89.5 -8.241000175476074 0 -1
79.30000305175781 75.5999984741211 -8.595999717712402 0 -1
79.5 79.19999694824219 16.60099983215332 1 -1
72.4000015258789 72.5999984741211 13.876999855041504 1 -1
75.80000305175781 80.30000305175781 15.77299976348877 1 -1
77.5999984741211 72.80000305175781 20.854000091552734 1 -1
78.9000015258789 78.4000015258789 17.23699951171875 1 -1
75.9000015258789 80.0999984741211 16.43000030517578 1 -1
77.0999984741211 87.69999694824219 -9.909000396728516 0 -1
75.4000015258789 83.69999694824219 -10.53600025177002 0 -1
74.5 76.80000305175781 -9.538999557495117 0 -1
73.0999984741211 83.19999694824219 -10.77400016784668 0 -1
80 77.0999984741211 16.763999938964844 1 -1
78.69999694824219 88.30000305175781 -9.892000198364258 0 -1
75.5999984741211 86 -10.13700008392334 0 -1
76.19999694824219 77.80000305175781 17.090999603271484 1 -1
76.30000305175781 80.30000305175781 16.070999145507812 1 -1
74.4000015258789 78.19999694824219 15.312000274658203 1 -1
78.19999694824219 75.9000015258789 -8.986000061035156 0 -1
75.69999694824219 79.30000305175781 16.150999069213867 1 -1
79.5999984741211 76.30000305175781 17.19099998474121 1 -1
79.4000015258789 74.0999984741211 23.47100067138672 1 -1
74.9000015258789 72.5999984741211 13.835000038146973 1 -1
77 80 16.9950008392334 1 -1
77.4000015258789 86.80000305175781 -10.553999900817871 0 -1
78.5 73 21.743000030517578 1 -1
77.5999984741211 75.5 -8.765000343322754 0 -1
71.30000305175781 73.19999694824219 13.880000114440918 1 -1
73.0999984741211 83.69999694824219 -10.958000183105469 0 -1
77.5 78 -10.6850004196167 0 -1
72.30000305175781 83 14.527000427246094 1 -1
77.30000305175781 78.30000305175781 16.76099967956543 1 -1
71.69999694824219 84.80000305175781 -9.918000221252441 0 -1
73.80000305175781 81.5 15.036999702453613 1 -1
76.0999984741211 85.80000305175781 -9.881999969482422 0 -1
75.4000015258789 71.5 13.850000381469727 1 -1
77.69999694824219 87.69999694824219 -9.949000358581543 0 -1
71.80000305175781 80 -9.991000175476074 0 -1
79.30000305175781 75.69999694824219 -8.553000450134277 0 -1
72.4000015258789 72.69999694824219 13.871000289916992 1 -1
74.19999694824219 84.0999984741211 -10.859999656677246 0 -1
76.80000305175781 79.5999984741211 -10.654999732971191 0 -1
74.19999694824219 80.4000015258789 14.770000457763672 1 -1
72.9000015258789 81.5999984741211 13.972999572753906 1 -1
76 71.9000015258789 13.831000328063965 1 -1
75.9000015258789 80 16.19099998474121 1 -1
76.5999984741211 88.30000305175781 -10.107999801635742 0 -1
74.30000305175781 84.69999694824219 -10.913000106811523 0 -1
73.30000305175781 78.30000305175781 20.04800033569336 1 -1
74 86.0999984741211 -10.342000007629395 0 -1
72.69999694824219 79.9000015258789 18.684999465942383 1 -1
76.80000305175781 74.9000015258789 21.108999252319336 1 -1
75.69999694824219 73.80000305175781 12.838000297546387 1 -1
74.9000015258789 90 -9.904000282287598 0 -1
75.5999984741211 85.9000015258789 -10.118000030517578 0 -1
75 73.5 11.63599967956543 1 -1
76.4000015258789 81.0999984741211 -11.251999855041504 0 -1
72.5 77.5 -8.984999656677246 0 -1
78 86 -9.809000015258789 0 -1
75.5 80.30000305175781 -11.343000411987305 0 -1
79.4000015258789 74 23.323999404907227 1 -1
79.80000305175781 87.19999694824219 -9.621000289916992 0 -1
71.5 75.19999694824219 -8.253000259399414 0 -1
72.30000305175781 71.5999984741211 13.85200023651123 1 -1
75.0999984741211 74.0999984741211 12.413000106811523 1 -1
74.4000015258789 75.5 -9.135000228881836 0 -1
72.9000015258789 81.19999694824219 14.024999618530273 1 -1
77.5999984741211 75.4000015258789 -8.805999755859375 0 -1
76.5 78 17.233999252319336 1 -1
75.5999984741211 71.0999984741211 13.819999694824219 1 -1
79.5999984741211 76.4000015258789 17.452999114990234 1 -1
77 80.0999984741211 17.027000427246094 1 -1
71.5999984741211 79.30000305175781 -9.880999565124512 0 -1
76.19999694824219 78.4000015258789 18.13800048828125 1 -1
76.19999694824219 77.69999694824219 16.62299919128418 1 -1
78.0999984741211 73.5 21.319000244140625 1 -1
75.5 77.80000305175781 16.16699981689453 1 -1
73.9000015258789 74.0999984741211 13.50100040435791 1 -1
74.19999694824219 80.5 14.685999870300293 1 -1
74.80000305175781 86.5999984741211 -10.4399995803833 0 -1
78.5999984741211 71.5 13.793000221252441 1 -1
71.80000305175781 80.0999984741211 -10.079000473022461 0 -1
78.9000015258789 74.19999694824219 -7.895999908447266 0 -1
79.9000015258789 76.4000015258789 17.13800048828125 1 -1
77.80000305175781 73.19999694824219 22.03499984741211 1 -1
78.30000305175781 88.0999984741211 -9.845999717712402 0 -1
74.0999984741211 89.30000305175781 -9.944999694824219 0 -1
76.0999984741211 73.4000015258789 12.0600004196167 1 -1
74.5999984741211 76.19999694824219 -9.364999771118164 0 -1
73 88.80000305175781 -9.751999855041504 0 -1
77.19999694824219 76.19999694824219 -9.079999923706055 0 -1
77.4000015258789 87 -10.753000259399414 0 -1
72.80000305175781 81.69999694824219 13.916000366210938 1 -1
71.9000015258789 82.0999984741211 13.397000312805176 1 -1
73.19999694824219 73.5999984741211 12.66100025177002 1 -1
75.9000015258789 75.0999984741211 -8.87399959564209 0 -1
74.4000015258789 75.4000015258789 -8.987000465393066 0 -1
76.5 79.69999694824219 16.408000946044922 1 -1
77.4000015258789 77.0999984741211 16.924999237060547 1 -1
72.5999984741211 80.5 -10.482000350952148 0 -1
74.5 77 -9.557999610900879 0 -1
75.0999984741211 74 12.211999893188477 1 -1
73.4000015258789 77.0999984741211 18.792999267578125 1 -1
72.4000015258789 84 -10.378999710083008 0 -1
76.9000015258789 80.80000305175781 -10.892999649047852 0 -1
78.69999694824219 88.0999984741211 -9.892000198364258 0 -1
71 85.69999694824219 -9.87600040435791 0 -1
79.9000015258789 76.69999694824219 -9.991999626159668 0 -1
73.5 84.9000015258789 -10.694999694824219 0 -1
72.0999984741211 81.19999694824219 14.479000091552734 1 -1
73.5999984741211 87.9000015258789 -10.163000106811523 0 -1
73.0999984741211 72.4000015258789 13.862000465393066 1 -1
78.80000305175781 77.4000015258789 16.94099998474121 1 -1
76.4000015258789 80.69999694824219 -11.239999771118164 0 -1
77.5 77.9000015258789 18.69300079345703 1 -1
77.9000015258789 79.30000305175781 17.15999984741211 1 -1
72.69999694824219 75.30000305175781 -8.604000091552734 0 -1
78.5999984741211 89.4000015258789 -8.468000411987305 0 -1
73.69999694824219 88.0999984741211 -10.218000411987305 0 -1
76.30000305175781 81.5 -11.430999755859375 0 -1
73.9000015258789 74 13.28499984741211 1 -1
75.69999694824219 79.4000015258789 16.148000717163086 1 -1
79.80000305175781 87.4000015258789 -9.61299991607666 0 -1
79.19999694824219 71.0999984741211 13.779000282287598 1 -1
75.4000015258789 83.5999984741211 -10.574000358581543 0 -1
72.19999694824219 82.69999694824219 14.321999549865723 1 -1
76.5999984741211 72.9000015258789 13.810999870300293 1 -1
75.30000305175781 78.5 17.020000457763672 1 -1
75.5999984741211 82 -11.496000289916992 0 -1
76.19999694824219 73.80000305175781 12.83899974822998 1 -1
74.9000015258789 72.69999694824219 13.833000183105469 1 -1
73.19999694824219 73.69999694824219 12.880999565124512 1 -1
72 72.4000015258789 13.864999771118164 1 -1
78.0999984741211 73.69999694824219 21.319000244140625 1 -1
76 85.69999694824219 -9.685999870300293 0 -1
79.30000305175781 76.19999694824219 16.874000549316406 1 -1
78.9000015258789 78.80000305175781 17.04599952697754 1 -1
74.4000015258789 75.5999984741211 -9.097999572753906 0 -1
78.80000305175781 77.5 16.929000854492188 1 -1
73.5 72.0999984741211 13.829000473022461 1 -1
76.30000305175781 77.69999694824219 16.6299991607666 1 -1
79.4000015258789 78.5999984741211 17.010000228881836 1 -1
78.30000305175781 88.30000305175781 -9.746000289916992 0 -1
73.0999984741211 83.5999984741211 -10.909000396728516 0 -1
74.0999984741211 89.0999984741211 -9.944999694824219 0 -1
72.5999984741211 80.80000305175781 -10.355999946594238 0 -1
79.0999984741211 76.5 16.799999237060547 1 -1
75.80000305175781 79.4000015258789 16.145999908447266 1 -1
71.5 88.4000015258789 -8.9399995803833 0 -1
77.0999984741211 86.30000305175781 -10.361000061035156 0 -1
77 79.9000015258789 17.259000778198242 1 -1
76.5999984741211 88.19999694824219 -10.23900032043457 0 -1
77.69999694824219 87.5999984741211 -10.444999694824219 0 -1
75 88.9000015258789 -10.63700008392334 0 -1
71.5999984741211 84.4000015258789 -9.883000373840332 0 -1
75.4000015258789 82.30000305175781 -11.291999816894531 0 -1
72.80000305175781 76.0999984741211 -8.789999961853027 0 -1
74.9000015258789 72.19999694824219 13.859999656677246 1 -1
73.19999694824219 82.9000015258789 -10.48799991607666 0 -1
78.19999694824219 76 -8.942999839782715 0 -1
77.80000305175781 88.4000015258789 -10.109000205993652 0 -1
71.9000015258789 82.30000305175781 13.229000091552734 1 -1
79.69999694824219 79.30000305175781 -9.993000030517578 0 -1
76.80000305175781 75 20.481000900268555 1 -1
75 73.4000015258789 11.595000267028809 1 -1
76.69999694824219 80.0999984741211 16.406999588012695 1 -1
71.30000305175781 72.80000305175781 13.859000205993652 1 -1
76.69999694824219 76.0999984741211 -9.20199966430664 0 -1
78 85.9000015258789 -9.855999946594238 0 -1
77.80000305175781 73 22.03499984741211 1 -1
72.0999984741211 81.0999984741211 14.043999671936035 1 -1
74 86.19999694824219 -9.991000175476074 0 -1
72.80000305175781 80.0999984741211 19.159000396728516 1 -1
74.69999694824219 79.30000305175781 17.322999954223633 1 -1
71.5 75.0999984741211 -7.875999927520752 0 -1
72.4000015258789 72.19999694824219 13.835000038146973 1 -1
78.0999984741211 75.0999984741211 -8.432000160217285 0 -1
79.4000015258789 78.69999694824219 16.77199935913086 1 -1
74.5999984741211 75.80000305175781 -9.199000358581543 0 -1
72 72.5 13.866999626159668 1 -1
72.5 77.5999984741211 -8.970000267028809 0 -1
79.0999984741211 76.5999984741211 16.773000717163086 1 -1
75.5 77.69999694824219 16.264999389648438 1 -1
74.9000015258789 89.5999984741211 -9.98799991607666 0 -1
80 81.69999694824219 -9.890999794006348 0 -1
76.80000305175781 79.5 16.415000915527344 1 -1
74.69999694824219 78.9000015258789 16.35700035095215 1 -1
72.30000305175781 71.19999694824219 13.852999687194824 1 -1
71.9000015258789 72.4000015258789 13.92300033569336 1 -1
78.30000305175781 88.19999694824219 -9.895000457763672 0 -1
75.0999984741211 79.69999694824219 15.795000076293945 1 -1
77.5999984741211 72.9000015258789 20.97100067138672 1 -1
79.30000305175781 76.0999984741211 16.68600082397461 1 -1
79.5999984741211 76.69999694824219 18.15399932861328 1 -1
74.30000305175781 84.80000305175781 -10.930000305175781 0 -1
74.0999984741211 89.19999694824219 -9.982999801635742 0 -1
71.9000015258789 82.19999694824219 13.369999885559082 1 -1
78.5999984741211 71.5999984741211 13.784000396728516 1 -1
73.4000015258789 77.30000305175781 18.038000106811523 1 -1
79.30000305175781 88.0999984741211 -9.40999984741211 0 -1
71.69999694824219 84.69999694824219 -9.883999824523926 0 -1
73.80000305175781 81.5999984741211 14.480999946594238 1 -1
76.0999984741211 84.0999984741211 -9.75 0 -1
72.4000015258789 72.30000305175781 13.871000289916992 1 -1
80 77 16.722999572753906 1 -1
78.9000015258789 73.80000305175781 12.791999816894531 1 -1
75.30000305175781 79.19999694824219 15.961999893188477 1 -1
73 88.69999694824219 -9.765999794006348 0 -1
76.0999984741211 73 13.847000122070312 1 -1
74.0999984741211 72.0999984741211 13.817000389099121 1 -1
78.5 73.0999984741211 21.753000259399414 1 -1
73.19999694824219 82.69999694824219 -10.48799991607666 0 -1
77.5999984741211 73 21.253999710083008 1 -1
74.19999694824219 84 -10.89900016784668 0 -1
78.9000015258789 78.5999984741211 17.812999725341797 1 -1
75.5 81.5 -11.387999534606934 0 -1
73.0999984741211 72.30000305175781 13.819000244140625 1 -1
76.4000015258789 80.80000305175781 -11.234000205993652 0 -1
75.9000015258789 80.69999694824219 15.621999740600586 1 -1
72.19999694824219 82.5999984741211 -10.37399959564209 0 -1
75.0999984741211 79.80000305175781 15.79699993133545 1 -1
78.69999694824219 75.69999694824219 -8.722999572753906 0 -1
71.5 88.19999694824219 -8.9399995803833 0 -1
76.5999984741211 72.80000305175781 13.815999984741211 1 -1
72.30000305175781 83.4000015258789 -9.984000205993652 0 -1
75.69999694824219 79.5 16.145999908447266 1 -1
76.9000015258789 80.69999694824219 -10.878999710083008 0 -1
79.19999694824219 71 13.779000282287598 1 -1
73.69999694824219 88.19999694824219 -9.970000267028809 0 -1
76 72.5 13.861000061035156 1 -1
73.30000305175781 78.19999694824219 19.66200065612793 1 -1
76.19999694824219 78.30000305175781 17.0310001373291 1 -1
77.69999694824219 86.5 -10.406000137329102 0 -1
75.69999694824219 75.69999694824219 -9.123000144958496 0 -1
74.80000305175781 87 -10.456999778747559 0 -1
72.9000015258789 81.30000305175781 13.973999977111816 1 -1
78.0999984741211 73.5999984741211 21.250999450683594 1 -1
73 88.5999984741211 -9.751999855041504 0 -1
77.5999984741211 75.30000305175781 21.082000732421875 1 -1
73.69999694824219 79.30000305175781 14.282999992370605 1 -1
73.80000305175781 81.69999694824219 14.387999534606934 1 -1
79.80000305175781 87.30000305175781 -9.609000205993652 0 -1
71.80000305175781 80.19999694824219 -10.031999588012695 0 -1
75.0999984741211 73.9000015258789 12.413000106811523 1 -1
77.9000015258789 84.80000305175781 -10.529999732971191 0 -1
75.9000015258789 76.5 -9.359000205993652 0 -1
76.0999984741211 84.19999694824219 -9.996000289916992 0 -1
79.4000015258789 73.9000015258789 23.47100067138672 1 -1
71.5 74.9000015258789 -7.875999927520752 0 -1
72.69999694824219 80.30000305175781 18.7450008392334 1 -1
77 79.80000305175781 17.090999603271484 1 -1
76.30000305175781 77.80000305175781 17.233999252319336 1 -1
75.4000015258789 82.19999694824219 -11.305999755859375 0 -1
75 88.80000305175781 -10.640999794006348 0 -1
73.5999984741211 88 -9.902000427246094 0 -1
74.9000015258789 72.30000305175781 13.833999633789062 1 -1
73.0999984741211 83.5 -10.859999656677246 0 -1
73.19999694824219 82.80000305175781 -10.484999656677246 0 -1
73.30000305175781 78.0999984741211 20.04800033569336 1 -1
77.69999694824219 73.19999694824219 21.56599998474121 1 -1
78.0999984741211 74.4000015258789 -8.194000244140625 0 -1
72.5 77.80000305175781 -9.149999618530273 0 -1
80 81.9000015258789 -9.600000381469727 0 -1
76.69999694824219 80 16.37700080871582 1 -1
71.5 88.30000305175781 -8.934000015258789 0 -1
75.80000305175781 79.5 16.0049991607666 1 -1
72.4000015258789 84.4000015258789 -9.932999610900879 0 -1
76.69999694824219 76.19999694824219 -9.331000328063965 0 -1
71.69999694824219 84.5 -9.883000373840332 0 -1
77.19999694824219 76.0999984741211 -9.027999877929688 0 -1
72.30000305175781 71.4000015258789 13.871999740600586 1 -1
72.80000305175781 76.19999694824219 -8.795000076293945 0 -1
71.5999984741211 78.9000015258789 -9.623000144958496 0 -1
74.19999694824219 80.5999984741211 14.60099983215332 1 -1
73.19999694824219 73.5 12.442000389099121 1 -1
78.30000305175781 87.9000015258789 -9.92300033569336 0 -1
73 71.5 13.857000350952148 1 -1
71.30000305175781 72.9000015258789 13.854000091552734 1 -1
76.5999984741211 88.0999984741211 -10.470999717712402 0 -1
78.5 73.19999694824219 21.743000030517578 1 -1
74.5 77.0999984741211 -9.59000015258789 0 -1
76.80000305175781 75.5999984741211 20.423999786376953 1 -1
72.80000305175781 80 19.32699966430664 1 -1
74 86.30000305175781 -9.928000450134277 0 -1
71.5999984741211 84 -9.583999633789062 0 -1
75.19999694824219 81.0999984741211 15.11299991607666 1 -1
77.19999694824219 79.9000015258789 17.565000534057617 1 -1
73.4000015258789 72.9000015258789 13.829999923706055 1 -1
78.5999984741211 74.4000015258789 22.85300064086914 1 -1
75.5 77.5999984741211 16.16699981689453 1 -1
79.4000015258789 73.80000305175781 -7.6539998054504395 0 -1
72.69999694824219 80.19999694824219 18.742000579833984 1 -1
74.9000015258789 89.69999694824219 -9.99899959564209 0 -1
71.5 75 -7.885000228881836 0 -1
71.9000015258789 72.19999694824219 13.855999946594238 1 -1
73.5999984741211 80.5999984741211 13.836000442504883 1 -1
80 76.80000305175781 16.722999572753906 1 -1
77.0999984741211 86.5 -10.428000450134277 0 -1
71.80000305175781 80.30000305175781 -10.17300033569336 0 -1
76.80000305175781 79.4000015258789 16.430999755859375 1 -1
72.69999694824219 75.4000015258789 -8.581000328063965 0 -1
74.5999984741211 75.9000015258789 -9.232999801635742 0 -1
72.9000015258789 81.4000015258789 14.024999618530273 1 -1
73.5 84.80000305175781 -10.734000205993652 0 -1
75.0999984741211 73.80000305175781 12.83899974822998 1 -1
79.9000015258789 76.5999984741211 -9.895999908447266 0 -1
77.9000015258789 83.0999984741211 -10.947999954223633 0 -1
76.30000305175781 81.5999984741211 -11.449000358581543 0 -1
79.5999984741211 76.5999984741211 18.04599952697754 1 -1
75.9000015258789 76.30000305175781 -9.258000373840332 0 -1
72.4000015258789 84.30000305175781 -10.388999938964844 0 -1
71.9000015258789 82.4000015258789 13.4399995803833 1 -1
74.19999694824219 81.19999694824219 14.288000106811523 1 -1
78.0999984741211 73.30000305175781 21.365999221801758 1 -1
76 72.69999694824219 13.861000061035156 1 -1
76.19999694824219 78.0999984741211 17.344999313354492 1 -1
73.9000015258789 73.9000015258789 13.50100040435791 1 -1
73.4000015258789 77.19999694824219 18.08799934387207 1 -1
72.5999984741211 80.69999694824219 -10.35099983215332 0 -1
79.80000305175781 87.5 -9.609000205993652 0 -1
76.0999984741211 73.19999694824219 13.793999671936035 1 -1
77.80000305175781 89.80000305175781 -8.871999740600586 0 -1
74.0999984741211 89.5 -9.991999626159668 0 -1
79 76.80000305175781 17.235000610351562 1 -1
75.30000305175781 79.30000305175781 15.852999687194824 1 -1
72.30000305175781 83.19999694824219 12.479000091552734 1 -1
76 85.5999984741211 -9.598999977111816 0 -1
77.5 79.80000305175781 16.52199935913086 1 -1
76.0999984741211 84 -9.895999908447266 0 -1
78.80000305175781 77.5999984741211 16.94099998474121 1 -1
76.30000305175781 77.5999984741211 16.704999923706055 1 -1
72.69999694824219 75.5 -8.604000091552734 0 -1
74.5 77.30000305175781 -9.647000312805176 0 -1
75.4000015258789 82.4000015258789 -11.305999755859375 0 -1
73.19999694824219 82.5999984741211 -10.484999656677246 0 -1
76.0999984741211 73.0999984741211 13.805000305175781 1 -1
73 71.5999984741211 13.871999740600586 1 -1
75.5999984741211 71 13.809000015258789 1 -1
74.69999694824219 80.69999694824219 14.880999565124512 1 -1
78.5999984741211 71.19999694824219 13.795999526977539 1 -1
73.4000015258789 76.9000015258789 18.32200050354004 1 -1
71.9000015258789 72.30000305175781 13.909000396728516 1 -1
77.0999984741211 86.4000015258789 -10.479999542236328 0 -1
75.69999694824219 79.5999984741211 16.0049991607666 1 -1
74.5999984741211 80.0999984741211 15.027999877929688 1 -1
78.9000015258789 78.69999694824219 18.10099983215332 1 -1
73.0999984741211 72.19999694824219 13.869000434875488 1 -1
73.69999694824219 88.30000305175781 -9.885000228881836 0 -1
79.69999694824219 79.19999694824219 -10.067000389099121 0 -1
77.19999694824219 80.0999984741211 17.565000534057617 1 -1
73.9000015258789 73.80000305175781 13.28499984741211 1 -1
74.80000305175781 86.9000015258789 -10.442000389099121 0 -1
71.5 88.0999984741211 -8.934000015258789 0 -1
73.69999694824219 79.19999694824219 14.388999938964844 1 -1
75.19999694824219 80.9000015258789 15.277999877929688 1 -1
74.30000305175781 73.5999984741211 12.461999893188477 1 -1
73.0999984741211 72.69999694824219 13.84000015258789 1 -1
71.5999984741211 79.0999984741211 -9.623000144958496 0 -1
72.19999694824219 82.5 -10.538000106811523 0 -1
72.0999984741211 81 14.479000091552734 1 -1
77.4000015258789 87.0999984741211 -10.805000305175781 0 -1
77.69999694824219 86.4000015258789 -10.449999809265137 0 -1
76.19999694824219 78.19999694824219 16.54800033569336 1 -1
75.69999694824219 75.5999984741211 -8.996000289916992 0 -1
72.5 77.69999694824219 -8.970999717712402 0 -1
79.0999984741211 76.69999694824219 17.235000610351562 1 -1
77.4000015258789 77 16.79800033569336 1 -1
72.80000305175781 75.80000305175781 -8.907999992370605 0 -1
74.5 81.30000305175781 14.597999572753906 1 -1
74.69999694824219 79 16.650999069213867 1 -1
71.5999984741211 84.19999694824219 -9.970000267028809 0 -1
75.9000015258789 76.4000015258789 -9.395000457763672 0 -1
72 72.5999984741211 13.852999687194824 1 -1
76.5 79.80000305175781 16.915000915527344 1 -1
76 85.9000015258789 -9.62600040435791 0 -1
71.5 74.80000305175781 -7.9019999504089355 0 -1
80 81.80000305175781 -9.562999725341797 0 -1
74.30000305175781 84.9000015258789 -10.878999710083008 0 -1
73.5999984741211 80.4000015258789 15.26200008392334 1 -1
79.4000015258789 78.80000305175781 17.073999404907227 1 -1
72.30000305175781 71.30000305175781 13.862000465393066 1 -1
72.0999984741211 80.9000015258789 14.043999671936035 1 -1
75.9000015258789 80.80000305175781 15.565999984741211 1 -1
75 88.5999984741211 -10.640999794006348 0 -1
71 85.30000305175781 -10.07800006866455 0 -1
73.19999694824219 73.4000015258789 13.869000434875488 1 -1
77.0999984741211 86.0999984741211 -10.361000061035156 0 -1
76.80000305175781 75.69999694824219 20.55900001525879 1 -1
72.4000015258789 72.4000015258789 13.875 1 -1
74.9000015258789 72.4000015258789 13.835000038146973 1 -1
77.9000015258789 78.9000015258789 17.687999725341797 1 -1
74.19999694824219 84.4000015258789 -10.803000450134277 0 -1
78.9000015258789 73.9000015258789 -7.771999835968018 0 -1
75.19999694824219 81 15.220000267028809 1 -1
73.0999984741211 83.9000015258789 -10.720999717712402 0 -1
74.4000015258789 79.80000305175781 17.229000091552734 1 -1
71.4000015258789 73.30000305175781 13.888999938964844 1 -1
71.69999694824219 84.5999984741211 -9.918000221252441 0 -1
76.19999694824219 73.9000015258789 12.848999977111816 1 -1
75.5999984741211 82.0999984741211 -11.560999870300293 0 -1
77.69999694824219 73.0999984741211 21.530000686645508 1 -1
77.5999984741211 76.19999694824219 -9.079999923706055 0 -1
76.69999694824219 75.80000305175781 -9.095000267028809 0 -1
77.80000305175781 89.5999984741211 -8.732000350952148 0 -1
74 86.4000015258789 -9.968999862670898 0 -1
80 76.9000015258789 16.763999938964844 1 -1
74.69999694824219 79.0999984741211 16.35700035095215 1 -1
78.9000015258789 78 16.947999954223633 1 -1
75.80000305175781 79.5999984741211 16.024999618530273 1 -1
76.5999984741211 73.19999694824219 13.805999755859375 1 -1
74.19999694824219 84.30000305175781 -10.859999656677246 0 -1
77.5999984741211 73.0999984741211 21.299999237060547 1 -1
79.30000305175781 88.19999694824219 -9.463000297546387 0 -1
75.5 81.5999984741211 -11.354000091552734 0 -1
74.4000015258789 75.69999694824219 -9.208000183105469 0 -1
78.5 72.80000305175781 13.958999633789062 1 -1
72.9000015258789 80.9000015258789 14.460000038146973 1 -1
76.69999694824219 79.9000015258789 16.406999588012695 1 -1
72 72.69999694824219 13.876999855041504 1 -1
80 81 -9.654999732971191 0 -1
77.9000015258789 83 -10.949999809265137 0 -1
78.5999984741211 74.30000305175781 22.795000076293945 1 -1
74.9000015258789 89.80000305175781 -9.989999771118164 0 -1
72.5999984741211 79 13.939000129699707 1 -1
73.80000305175781 81.80000305175781 14.480999946594238 1 -1
78.30000305175781 88 -9.895000457763672 0 -1
76 72.5999984741211 13.868000030517578 1 -1
76.19999694824219 78 17.090999603271484 1 -1
76.80000305175781 79.80000305175781 -10.654999732971191 0 -1
78.69999694824219 75.5999984741211 -8.777000427246094 0 -1
75 88.69999694824219 -10.63700008392334 0 -1
77.4000015258789 76.80000305175781 16.79800033569336 1 -1
72.30000305175781 83.30000305175781 -9.972000122070312 0 -1
76.9000015258789 80.5999984741211 -10.880999565124512 0 -1
73.5999984741211 87.5999984741211 -9.970000267028809 0 -1
76.4000015258789 80.4000015258789 16.020999908447266 1 -1
77.5999984741211 76.0999984741211 -9.039999961853027 0 -1
74.0999984741211 89.4000015258789 -9.994000434875488 0 -1
79 76.9000015258789 17.437999725341797 1 -1
73.69999694824219 88.4000015258789 -9.857000350952148 0 -1
75 73.30000305175781 13.852999687194824 1 -1
76 72.30000305175781 13.845999717712402 1 -1
72.80000305175781 79.9000015258789 19.23699951171875 1 -1
78.0999984741211 74.30000305175781 -8.095000267028809 0 -1
77.5 79.69999694824219 16.19700050354004 1 -1
80 77.69999694824219 16.858999252319336 1 -1
79.30000305175781 88.30000305175781 -9.302000045776367 0 -1
74.30000305175781 85.0999984741211 -10.878999710083008 0 -1
78.5999984741211 71.30000305175781 13.79699993133545 1 -1
73.4000015258789 76.80000305175781 18.55699920654297 1 -1
75.9000015258789 80.5 15.810999870300293 1 -1
72.4000015258789 85.69999694824219 -9.925999641418457 0 -1
79.4000015258789 74.69999694824219 -7.99399995803833 0 -1
74.5 77.19999694824219 -9.567999839782715 0 -1
71.9000015258789 73.0999984741211 13.875 1 -1
76.0999984741211 72.80000305175781 13.854000091552734 1 -1
76.5999984741211 88.5 -10.107999801635742 0 -1
72.30000305175781 72 13.859000205993652 1 -1
72.69999694824219 79.5999984741211 19.066999435424805 1 -1
73.5 84.69999694824219 -10.744000434875488 0 -1
71 85.5 -10.15999984741211 0 -1
71.9000015258789 73.19999694824219 13.880000114440918 1 -1
73 89 -9.649999618530273 0 -1
71.19999694824219 71.5 13.833999633789062 1 -1
76 86 -9.560999870300293 0 -1
77.19999694824219 76 -8.989999771118164 0 -1
75.69999694824219 79.69999694824219 16.02199935913086 1 -1
71.9000015258789 85.5999984741211 -9.644000053405762 0 -1
72.5 73.80000305175781 13.116000175476074 1 -1
74.5999984741211 80 15.145000457763672 1 -1
76.0999984741211 84.4000015258789 -9.972999572753906 0 -1
75 72.0999984741211 13.854999542236328 1 -1
73.30000305175781 78 19.66200065612793 1 -1
75.69999694824219 75.5 -8.956000328063965 0 -1
74.80000305175781 86.80000305175781 -10.4399995803833 0 -1
75.19999694824219 80.80000305175781 15.220000267028809 1 -1
77.4000015258789 76.9000015258789 16.924999237060547 1 -1
73 71.19999694824219 13.803999900817871 1 -1
73.80000305175781 81.9000015258789 14.574999809265137 1 -1
72.9000015258789 81 -10.383999824523926 0 -1
76.19999694824219 74.0999984741211 -8.21399974822998 0 -1
71.5999984741211 79 -9.560999870300293 0 -1
75.4000015258789 71.0999984741211 13.85099983215332 1 -1
74.5 81.4000015258789 14.647000312805176 1 -1
74.5999984741211 76 -9.364999771118164 0 -1
75.9000015258789 76.69999694824219 -9.430999755859375 0 -1
76 90 12.180000305175781 1 -1
74.4000015258789 73.80000305175781 13.125 1 -1
77.19999694824219 80 17.226999282836914 1 -1
74.30000305175781 73.69999694824219 13.125 1 -1
78.9000015258789 74.5999984741211 20.93600082397461 1 -1
73.0999984741211 72.5999984741211 13.826000213623047 1 -1
72 74.80000305175781 -8.045000076293945 0 -1
76.4000015258789 80.5 15.991999626159668 1 -1
77.9000015258789 79.0999984741211 17.687999725341797 1 -1
75.9000015258789 80.4000015258789 15.755000114440918 1 -1
77.5999984741211 73.19999694824219 21.253999710083008 1 -1
71.5999984741211 84.0999984741211 -9.786999702453613 0 -1
71.69999694824219 71.19999694824219 13.845000267028809 1 -1
73.4000015258789 72.80000305175781 13.807999610900879 1 -1
73.30000305175781 77.9000015258789 19.625999450683594 1 -1
76.30000305175781 81.69999694824219 -11.430999755859375 0 -1
78.0999984741211 73.4000015258789 21.250999450683594 1 -1
71 85.4000015258789 -10.173999786376953 0 -1
72.80000305175781 75.9000015258789 -8.968999862670898 0 -1
75.5999984741211 82.30000305175781 -11.560999870300293 0 -1
73.5999984741211 80.5 13.824999809265137 1 -1
74.19999694824219 81.30000305175781 14.291000366210938 1 -1
71.69999694824219 83.4000015258789 12.305999755859375 1 -1
75.19999694824219 83.9000015258789 -10.527999877929688 0 -1
74.9000015258789 73 13.805000305175781 1 -1
72.19999694824219 83.4000015258789 13.46399974822998 1 -1
76.5999984741211 73.0999984741211 13.810999870300293 1 -1
77.4000015258789 87.19999694824219 -10.857000350952148 0 -1
77.69999694824219 86.30000305175781 -10.229000091552734 0 -1
76.9000015258789 80.4000015258789 15.79800033569336 1 -1
79.5999984741211 76 16.770999908447266 1 -1
75.4000015258789 82 -11.333000183105469 0 -1
76.19999694824219 74 12.83899974822998 1 -1
72.30000305175781 82.5999984741211 14.404000282287598 1 -1
74.30000305175781 73.5 12.682999610900879 1 -1
79.5 79.80000305175781 -9.973999977111816 0 -1
73 88.9000015258789 -9.765999794006348 0 -1
76.5 79.4000015258789 17.365999221801758 1 -1
78.80000305175781 77.69999694824219 16.929000854492188 1 -1
72.19999694824219 73.30000305175781 13.890000343322754 1 -1
77.9000015258789 79 18.132999420166016 1 -1
73.4000015258789 77 18.55699920654297 1 -1
76.69999694824219 75.9000015258789 -9.20199966430664 0 -1
76.30000305175781 77.5 16.538999557495117 1 -1
78.69999694824219 75.4000015258789 -8.520000457763672 0 -1
79.9000015258789 76 -8.696999549865723 0 -1
73.0999984741211 83.80000305175781 -10.704999923706055 0 -1
79.4000015258789 77.9000015258789 16.88599967956543 1 -1
74.4000015258789 89.19999694824219 -9.916999816894531 0 -1
74.30000305175781 77.9000015258789 -9.473999977111816 0 -1
75.5 81.69999694824219 -11.342000007629395 0 -1
73.5999984741211 87.80000305175781 -9.970000267028809 0 -1
75.5999984741211 82.19999694824219 -11.583000183105469 0 -1
73.69999694824219 79.0999984741211 14.282999992370605 1 -1
77.69999694824219 73 21.59000015258789 1 -1
77.80000305175781 89.69999694824219 -8.973999977111816 0 -1
77.19999694824219 75.80000305175781 -8.913000106811523 0 -1
75.0999984741211 77.9000015258789 15.819999694824219 1 -1
74 86.5 -9.984999656677246 0 -1
79.0999984741211 75.80000305175781 -8.72700023651123 0 -1
79.69999694824219 79.5999984741211 -9.918000221252441 0 -1
75.80000305175781 79.69999694824219 16.03499984741211 1 -1
72.69999694824219 79.5 19.055999755859375 1 -1
76.80000305175781 75.30000305175781 20.420000076293945 1 -1
80 80.9000015258789 -9.64799976348877 0 -1
73.4000015258789 73.0999984741211 13.836999893188477 1 -1
71.0999984741211 85.69999694824219 -9.76099967956543 0 -1
75.0999984741211 78 15.923999786376953 1 -1
71.19999694824219 71.5999984741211 13.824999809265137 1 -1
72.69999694824219 76.0999984741211 -8.996000289916992 0 -1
79.80000305175781 87.5999984741211 -9.545999526977539 0 -1
72.4000015258789 71 13.821000099182129 1 -1
73.5 75.5999984741211 17.582000732421875 1 -1
77.80000305175781 90 -8.871999740600586 0 -1
76.80000305175781 79.69999694824219 17.01799964904785 1 -1
72.80000305175781 80.30000305175781 19.05500030517578 1 -1
77.19999694824219 80.19999694824219 16.9950008392334 1 -1
73.5 84.5 -10.744000434875488 0 -1
77 79.69999694824219 17.01799964904785 1 -1
71.19999694824219 80.0999984741211 -10.1850004196167 0 -1
77.80000305175781 74.0999984741211 21.17300033569336 1 -1
72.5999984741211 79.0999984741211 13.847999572753906 1 -1
74.19999694824219 81.4000015258789 14.27299976348877 1 -1
78.80000305175781 77.80000305175781 16.95400047302246 1 -1
79.69999694824219 79.5 -9.9350004196167 0 -1
73.9000015258789 73.69999694824219 13.069000244140625 1 -1
73.69999694824219 88.5 -9.885000228881836 0 -1
71.30000305175781 77 -8.263999938964844 0 -1
71.69999694824219 71.4000015258789 13.848999977111816 1 -1
76.30000305175781 81.9000015258789 -11.50100040435791 0 -1
73.5999984741211 80.80000305175781 13.836000442504883 1 -1
76.69999694824219 80.30000305175781 16.347999572753906 1 -1
80 77.80000305175781 16.820999145507812 1 -1
78.5999984741211 74.69999694824219 -8.302000045776367 0 -1
74.0999984741211 73.4000015258789 11.597000122070312 1 -1
74 89.5999984741211 -9.979000091552734 0 -1
74.5 81.19999694824219 14.647000312805176 1 -1
79.0999984741211 75.9000015258789 -8.678000450134277 0 -1
75.69999694824219 79.80000305175781 16.017000198364258 1 -1
71.9000015258789 73 13.845999717712402 1 -1
71.4000015258789 78.30000305175781 -8.689000129699707 0 -1
76 72.19999694824219 13.83899974822998 1 -1
77.5 79.5999984741211 16.45800018310547 1 -1
76 85.80000305175781 -9.598999977111816 0 -1
76.5999984741211 88.4000015258789 -10.152000427246094 0 -1
72.69999694824219 76.19999694824219 -8.843999862670898 0 -1
71.69999694824219 83.19999694824219 12.26099967956543 1 -1
73.80000305175781 79.9000015258789 14.555999755859375 1 -1
79.9000015258789 75.80000305175781 -8.447999954223633 0 -1
74.30000305175781 85 -10.895999908447266 0 -1
75.9000015258789 80.5999984741211 15.755000114440918 1 -1
77.4000015258789 87.4000015258789 -10.628000259399414 0 -1
77.5999984741211 72.19999694824219 13.850000381469727 1 -1
74.0999984741211 86.69999694824219 -9.994999885559082 0 -1
71.9000015258789 85.69999694824219 -9.607000350952148 0 -1
75.30000305175781 78.9000015258789 17.95400047302246 1 -1
72.4000015258789 71.0999984741211 13.822999954223633 1 -1
76.19999694824219 74.19999694824219 -8.503000259399414 0 -1
76.0999984741211 72.9000015258789 13.85200023651123 1 -1
79.4000015258789 78 17.014999389648438 1 -1
71.19999694824219 80 -9.982999801635742 0 -1
78.5999984741211 71.4000015258789 13.793999671936035 1 -1
78.9000015258789 74.5 -8.116000175476074 0 -1
78.19999694824219 72.9000015258789 21.816999435424805 1 -1
71.80000305175781 81.5 15.119000434875488 1 -1
72.0999984741211 80.80000305175781 14.072999954223633 1 -1
75.69999694824219 75.4000015258789 -8.937999725341797 0 -1
71 85.0999984741211 -10.07800006866455 0 -1
75.0999984741211 75.69999694824219 -9.131999969482422 0 -1
74.4000015258789 89.0999984741211 -9.949999809265137 0 -1
73.9000015258789 73.5999984741211 12.852999687194824 1 -1
75.9000015258789 76.5999984741211 -9.395000457763672 0 -1
73.19999694824219 82.5 -10.406999588012695 0 -1
76.5 79.5999984741211 17.365999221801758 1 -1
79.80000305175781 87.80000305175781 -9.413000106811523 0 -1
73.0999984741211 72.5 13.859000205993652 1 -1
77.5999984741211 72.30000305175781 13.833999633789062 1 -1
75.0999984741211 89 -10.684000015258789 0 -1
71.5999984741211 85.80000305175781 -9.732000350952148 0 -1
71.4000015258789 73.4000015258789 13.862000465393066 1 -1
75.5999984741211 82.4000015258789 -11.583000183105469 0 -1
74.9000015258789 73.0999984741211 13.807000160217285 1 -1
76.5999984741211 73 13.815999984741211 1 -1
76.9000015258789 80.5 -10.871000289916992 0 -1
79.30000305175781 88.4000015258789 -9.355999946594238 0 -1
78.9000015258789 77.9000015258789 16.98699951171875 1 -1
78.5 72.9000015258789 21.91699981689453 1 -1
80 81.0999984741211 -9.64799976348877 0 -1
75.19999694824219 80.69999694824219 15.277999877929688 1 -1
78.0999984741211 74.69999694824219 21.667999267578125 1 -1
73.4000015258789 73.19999694824219 13.836999893188477 1 -1
77.4000015258789 87.30000305175781 -10.62399959564209 0 -1
77.69999694824219 86.19999694824219 -10.199000358581543 0 -1
76.5 79.5 16.385000228881836 1 -1
77.69999694824219 77.4000015258789 17.075000762939453 1 -1
71 85 -9.968000411987305 0 -1
77.5999984741211 76 -8.954000473022461 0 -1
77.69999694824219 72.9000015258789 21.95199966430664 1 -1
78.69999694824219 75.5 -8.553000450134277 0 -1
79.5 79.69999694824219 -9.996999740600586 0 -1
75.80000305175781 79.80000305175781 16.024999618530273 1 -1
77 79.5 17.054000854492188 1 -1
72.19999694824219 83.30000305175781 13.600000381469727 1 -1
74.19999694824219 83.69999694824219 -10.920000076293945 0 -1
72.5999984741211 78.9000015258789 -9.906999588012695 0 -1
75.5 81.80000305175781 -11.354000091552734 0 -1
75.0999984741211 75.5999984741211 -9.164999961853027 0 -1
73.5999984741211 87.69999694824219 -9.968000411987305 0 -1
73.69999694824219 79 5.165999889373779 1 -1
72.4000015258789 85.5999984741211 -9.949999809265137 0 -1
73.4000015258789 78.69999694824219 20.18899917602539 1 -1
74.5999984741211 79.9000015258789 15.26200008392334 1 -1
79.4000015258789 74.5999984741211 -7.945000171661377 0 -1
76.80000305175781 75.4000015258789 20.423999786376953 1 -1
80 77.5999984741211 16.832000732421875 1 -1
71.5 71 13.807999610900879 1 -1
74.4000015258789 89.30000305175781 -9.949999809265137 0 -1
72.19999694824219 73.4000015258789 13.784000396728516 1 -1
77.5 79.5 16.719999313354492 1 -1
77.19999694824219 75.9000015258789 -8.95199966430664 0 -1
72.5 73.9000015258789 13.314000129699707 1 -1
79.30000305175781 88.5 -9.302000045776367 0 -1
79.5999984741211 75.80000305175781 -8.618000030517578 0 -1
75.0999984741211 88.9000015258789 -10.670999526977539 0 -1
72.80000305175781 76 -8.791999816894531 0 -1
71.0999984741211 85.5999984741211 -9.8149995803833 0 -1
71.4000015258789 78.0999984741211 -8.980999946594238 0 -1
73.0999984741211 88.30000305175781 -9.788000106811523 0 -1
71.5 74.69999694824219 -7.894000053405762 0 -1
