VERSION .7
FIELDS x y z label object
SIZE 4 4 4 4 4
TYPE F F F I I
COUNT 1 1 1 1 1
WIDTH 898
HEIGHT 1
POINTS 898
VIEWPOINT 0 0 0 1 0 0 0
DATA ascii
75.5 87.30000305175781 -10.812000274658203 0 -1
72.30000305175781 74.9000015258789 -7.927999973297119 0 -1
71.4000015258789 86.0999984741211 -9.345000267028809 0 -1
71.0999984741211 77.5999984741211 -7.98199987411499 0 -1
72.9000015258789 82.5 -10.991999626159668 0 -1
73.5 79.0999984741211 -9.380999565124512 0 -1
71.80000305175781 88.0999984741211 -9.942999839782715 0 -1
79.30000305175781 71.30000305175781 13.965999603271484 1 -1
79.80000305175781 74.69999694824219 16.871000289916992 1 -1
77.9000015258789 72.4000015258789 14.003000259399414 1 -1
75.80000305175781 87.30000305175781 -10.986000061035156 0 -1
74.80000305175781 78.0999984741211 -10.187000274658203 0 -1
77.9000015258789 76.30000305175781 -9.253999710083008 0 -1
78.4000015258789 88 -9.980999946594238 0 -1
74.5 85.9000015258789 -10.46399974822998 0 -1
75.30000305175781 89.69999694824219 -9.82800006866455 0 -1
72.4000015258789 76 -7.923999786376953 0 -1
72.80000305175781 87.69999694824219 -9.581000328063965 0 -1
79 85.4000015258789 -10.574000358581543 0 -1
71 77.69999694824219 -7.980999946594238 0 -1
79.9000015258789 84.69999694824219 -9.550999641418457 0 -1
72.69999694824219 85.80000305175781 -9.746000289916992 0 -1
79.4000015258789 83.5 -10.557999610900879 0 -1
79.9000015258789 72 13.956000328063965 1 -1
78.4000015258789 87.5999984741211 -10.182000160217285 0 -1
74.19999694824219 77.5999984741211 -9.939000129699707 0 -1
79.0999984741211 72.0999984741211 13.994999885559082 1 -1
76 77.30000305175781 -9.918000221252441 0 -1
75.5999984741211 74.5999984741211 -8.60200023651123 0 -1
77.0999984741211 76.5 -9.378999710083008 0 -1
72 83.4000015258789 -10.864999771118164 0 -1
72.9000015258789 82.5999984741211 -10.956000328063965 0 -1
73 75.0999984741211 -7.952000141143799 0 -1
75.30000305175781 89.5999984741211 -9.916000366210938 0 -1
77.5 88.4000015258789 -9.928999900817871 0 -1
80 89.5999984741211 -8.77400016784668 0 -1
72.5999984741211 86.69999694824219 -9.333000183105469 0 -1
76.9000015258789 88.30000305175781 -10.368000030517578 0 -1
78.69999694824219 79.30000305175781 15.28600025177002 1 -1
72.0999984741211 89.5 -10.420000076293945 0 -1
75.80000305175781 83.0999984741211 16.645999908447266 1 -1
79.80000305175781 74.5 16.961999893188477 1 -1
79.0999984741211 72 13.982999801635742 1 -1
78.0999984741211 78 16.829999923706055 1 -1
75.5999984741211 74.5 -8.571999549865723 0 -1
71.9000015258789 75.9000015258789 -7.896999835968018 0 -1
77 88.4000015258789 -10.248000144958496 0 -1
76.80000305175781 83 16.444000244140625 1 -1
73.5 78.9000015258789 -9.380999565124512 0 -1
78.5999984741211 78 17.023000717163086 1 -1
72 83.5 -10.765000343322754 0 -1
74.69999694824219 87.30000305175781 -10.72599983215332 0 -1
79.19999694824219 76.4000015258789 16.420000076293945 1 -1
73.30000305175781 85.5999984741211 -9.918999671936035 0 -1
75.5 87.4000015258789 -11.137999534606934 0 -1
75.4000015258789 76.30000305175781 -9.574999809265137 0 -1
76.0999984741211 74.69999694824219 -8.553000450134277 0 -1
72.30000305175781 75 -7.989999771118164 0 -1
74.0999984741211 80 -9.824000358581543 0 -1
71 77.4000015258789 -7.964000225067139 0 -1
74.80000305175781 78.5 -9.883000373840332 0 -1
72.5 83.5 -10.967000007629395 0 -1
75.80000305175781 87.4000015258789 -10.89799976348877 0 -1
79.9000015258789 84.5 -9.550999641418457 0 -1
71.19999694824219 88.80000305175781 -9.840999603271484 0 -1
71.30000305175781 85.69999694824219 -9.512999534606934 0 -1
74.69999694824219 72.19999694824219 14.052000045776367 1 -1
71.9000015258789 75.80000305175781 -7.714000225067139 0 -1
79.69999694824219 87.19999694824219 -9.704999923706055 0 -1
74 78.9000015258789 -9.581999778747559 0 -1
74.69999694824219 87.4000015258789 -10.76200008392334 0 -1
76.9000015258789 88.0999984741211 -10.399999618530273 0 -1
75.5 83.0999984741211 16.016000747680664 1 -1
75.0999984741211 71.30000305175781 14.053000450134277 1 -1
71.4000015258789 87 -9.991000175476074 0 -1
73.4000015258789 86.69999694824219 -9.85200023651123 0 -1
73.80000305175781 88.5999984741211 -10.640000343322754 0 -1
74.0999984741211 80.0999984741211 -9.878000259399414 0 -1
77.9000015258789 72 13.994000434875488 1 -1
72.80000305175781 87.80000305175781 -9.597999572753906 0 -1
79 85.5 -10.595000267028809 0 -1
77.5 88.30000305175781 -9.918999671936035 0 -1
75.30000305175781 89.80000305175781 -9.916000366210938 0 -1
76 77.0999984741211 -9.918000221252441 0 -1
80 89.80000305175781 -7.544000148773193 0 -1
77.5999984741211 79.9000015258789 17.013999938964844 1 -1
75.5999984741211 74.69999694824219 -8.652000427246094 0 -1
78.0999984741211 78.69999694824219 16.84600067138672 1 -1
75.4000015258789 76.5 -9.668999671936035 0 -1
77 88.19999694824219 -10.279999732971191 0 -1
78.4000015258789 72.5 13.979999542236328 1 -1
76.0999984741211 74.5 -8.553000450134277 0 -1
71.80000305175781 88.19999694824219 -9.972000122070312 0 -1
75.0999984741211 71.4000015258789 14.026000022888184 1 -1
79.19999694824219 76.30000305175781 17.113000869750977 1 -1
73.80000305175781 88.69999694824219 -10.680999755859375 0 -1
79.30000305175781 71.19999694824219 13.960000038146973 1 -1
75.80000305175781 83 16.67099952697754 1 -1
72.30000305175781 74.80000305175781 -7.869999885559082 0 -1
76.30000305175781 88.69999694824219 -10.52400016784668 0 -1
78.5999984741211 78.5999984741211 17.540000915527344 1 -1
72.5 83.69999694824219 -10.928000450134277 0 -1
72.80000305175781 87.30000305175781 -9.513999938964844 0 -1
78.4000015258789 71.9000015258789 13.991999626159668 1 -1
79.80000305175781 74.5999984741211 16.827999114990234 1 -1
76.4000015258789 89.9000015258789 -10.196999549865723 0 -1
75.5 87.5 -10.99899959564209 0 -1
77 88.30000305175781 -10.232000350952148 0 -1
72.69999694824219 85.9000015258789 -9.58899974822998 0 -1
74.80000305175781 78.4000015258789 -9.902999877929688 0 -1
71.80000305175781 88.30000305175781 -9.927000045776367 0 -1
71.4000015258789 86.80000305175781 -8.937000274658203 0 -1
79.0999984741211 71.9000015258789 13.956999778747559 1 -1
76.0999984741211 74.5999984741211 -8.612000465393066 0 -1
79.9000015258789 84.5999984741211 -9.321000099182129 0 -1
72.9000015258789 82.19999694824219 -10.944999694824219 0 -1
71.9000015258789 76 -7.9120001792907715 0 -1
79.9000015258789 72.0999984741211 13.946999549865723 1 -1
78.4000015258789 87.69999694824219 -10.173999786376953 0 -1
75.80000305175781 87.5 -10.859999656677246 0 -1
73.5 79.80000305175781 -9.697999954223633 0 -1
76.9000015258789 90 -9.753999710083008 0 -1
79.5999984741211 72.0999984741211 13.947999954223633 1 -1
71.30000305175781 85.5999984741211 -9.61299991607666 0 -1
75.5 83 16.23699951171875 1 -1
72.4000015258789 75.80000305175781 -7.923999786376953 0 -1
74 79 -9.602999687194824 0 -1
72 83.5999984741211 -10.732000350952148 0 -1
72.5999984741211 86.5999984741211 -9.28499984741211 0 -1
72.9000015258789 82.30000305175781 -10.848999977111816 0 -1
78.69999694824219 79.4000015258789 15.312999725341797 1 -1
71.19999694824219 88.69999694824219 -9.904000282287598 0 -1
77.5 88.19999694824219 -9.975000381469727 0 -1
72.0999984741211 89.4000015258789 -10.41100025177002 0 -1
74.19999694824219 76.9000015258789 -9.642000198364258 0 -1
79.80000305175781 74.4000015258789 16.827999114990234 1 -1
73 75.5 -8.673999786376953 0 -1
75.5 88.5999984741211 -10.859000205993652 0 -1
78.4000015258789 87.80000305175781 -10.182000160217285 0 -1
78.0999984741211 78.5999984741211 16.889999389648438 1 -1
73.30000305175781 85.5 -9.96399974822998 0 -1
74.0999984741211 79.9000015258789 -9.637999534606934 0 -1
72.69999694824219 86 -9.53600025177002 0 -1
79.9000015258789 84.9000015258789 -9.090999603271484 0 -1
79.5999984741211 71.80000305175781 13.958000183105469 1 -1
72.0999984741211 89.30000305175781 -10.35200023651123 0 -1
79.9000015258789 71.80000305175781 13.935999870300293 1 -1
72 83.69999694824219 -10.902000427246094 0 -1
77 88.0999984741211 -10.263999938964844 0 -1
79.19999694824219 76.19999694824219 17.113000869750977 1 -1
71.19999694824219 88.5999984741211 -9.927000045776367 0 -1
79.69999694824219 87.0999984741211 -9.409000396728516 0 -1
74.19999694824219 76.80000305175781 -9.670999526977539 0 -1
78.5999984741211 78.69999694824219 17.62299919128418 1 -1
73 75.4000015258789 -8.531000137329102 0 -1
75.4000015258789 75.0999984741211 -8.956999778747559 0 -1
77.5999984741211 80 17.195999145507812 1 -1
76 76.5 -9.571999549865723 0 -1
76.30000305175781 88.5999984741211 -10.482000350952148 0 -1
74.69999694824219 87.5 -10.72599983215332 0 -1
72.5 83.5999984741211 -10.907999992370605 0 -1
72.80000305175781 87.4000015258789 -9.527999877929688 0 -1
73.30000305175781 85.4000015258789 -9.96399974822998 0 -1
79.69999694824219 87.5 -9.505999565124512 0 -1
75.9000015258789 71.5 14.020999908447266 1 -1
79.5999984741211 71.69999694824219 13.930999755859375 1 -1
74.69999694824219 87.0999984741211 -10.621999740600586 0 -1
71.9000015258789 76.0999984741211 -7.826000213623047 0 -1
71.4000015258789 86.9000015258789 -9.940999984741211 0 -1
78.0999984741211 78.80000305175781 16.834999084472656 1 -1
77.5999984741211 80.0999984741211 18.319000244140625 1 -1
80 89.9000015258789 -7.85099983215332 0 -1
73.4000015258789 86.30000305175781 -9.89900016784668 0 -1
78.69999694824219 79.5999984741211 15.312999725341797 1 -1
75.30000305175781 86.30000305175781 -10.993000030517578 0 -1
79.30000305175781 71.0999984741211 13.965999603271484 1 -1
73.80000305175781 88.80000305175781 -10.78600025177002 0 -1
74 79.0999984741211 -9.538999557495117 0 -1
71.30000305175781 86 -9.47599983215332 0 -1
75.0999984741211 71.5 14.015999794006348 1 -1
73.4000015258789 86.5 -9.85200023651123 0 -1
75.0999984741211 71.5999984741211 14.005999565124512 1 -1
76.30000305175781 88.80000305175781 -10.569999694824219 0 -1
74.0999984741211 80.30000305175781 -9.984999656677246 0 -1
75.80000305175781 86.5999984741211 -10.961999893188477 0 -1
79 73.69999694824219 13.050999641418457 1 -1
71 77.5 -7.953999996185303 0 -1
75.5 88.69999694824219 -10.612000465393066 0 -1
77.5 88.0999984741211 -10.159000396728516 0 -1
79.30000305175781 71 13.944999694824219 1 -1
74.80000305175781 78.80000305175781 -9.758999824523926 0 -1
78.4000015258789 71.80000305175781 13.98900032043457 1 -1
71.0999984741211 77.30000305175781 -7.978000164031982 0 -1
79.5999984741211 71.9000015258789 13.961000442504883 1 -1
72.5 83.80000305175781 -10.907999992370605 0 -1
72.30000305175781 75.19999694824219 -7.995999813079834 0 -1
79.9000015258789 71.69999694824219 13.930000305175781 1 -1
76.4000015258789 90 -10.140999794006348 0 -1
79.0999984741211 71.80000305175781 13.909000396728516 1 -1
79.80000305175781 74.30000305175781 17.274999618530273 1 -1
76.0999984741211 77 -9.878999710083008 0 -1
77.9000015258789 72.0999984741211 13.998000144958496 1 -1
76 81.69999694824219 17.225000381469727 1 -1
76 76.30000305175781 -9.571999549865723 0 -1
72.4000015258789 76.19999694824219 -8.631999969482422 0 -1
79.19999694824219 76.0999984741211 17.113000869750977 1 -1
72.69999694824219 85.5999984741211 -9.77400016784668 0 -1
72.5999984741211 87 -9.708999633789062 0 -1
72.9000015258789 82.4000015258789 -10.956000328063965 0 -1
71.4000015258789 86.69999694824219 -8.98900032043457 0 -1
73.5 79.69999694824219 -9.694999694824219 0 -1
78.5999984741211 78.80000305175781 17.367000579833984 1 -1
72.80000305175781 87.5 -9.513999938964844 0 -1
71.80000305175781 88.4000015258789 -9.881999969482422 0 -1
78.4000015258789 71.69999694824219 13.942000389099121 1 -1
75.5999984741211 74.80000305175781 -8.60200023651123 0 -1
79.0999984741211 71.69999694824219 13.918000221252441 1 -1
73.69999694824219 71.0999984741211 14.03600025177002 1 -1
76.9000015258789 89.9000015258789 -9.8100004196167 0 -1
72.4000015258789 76.0999984741211 -7.89900016784668 0 -1
78.69999694824219 79.5 15.28600025177002 1 -1
77.9000015258789 74.9000015258789 -8.621999740600586 0 -1
75.30000305175781 86.5 -10.958999633789062 0 -1
73.5 79.5 -9.694999694824219 0 -1
71.80000305175781 88.5 -9.927000045776367 0 -1
79.9000015258789 84.80000305175781 -9.321000099182129 0 -1
76 81.9000015258789 17.003000259399414 1 -1
76.0999984741211 76.80000305175781 -9.720000267028809 0 -1
74 79.19999694824219 -9.517999649047852 0 -1
75.4000015258789 75.19999694824219 -8.937000274658203 0 -1
73.4000015258789 86.4000015258789 -9.92199993133545 0 -1
72.0999984741211 89.19999694824219 -10.41100025177002 0 -1
79.9000015258789 71.9000015258789 13.930000305175781 1 -1
72 83.80000305175781 -10.871999740600586 0 -1
73.30000305175781 85.30000305175781 -9.994000434875488 0 -1
77.9000015258789 75 -8.531999588012695 0 -1
76 76.4000015258789 -9.619000434875488 0 -1
73.9000015258789 82 -10.67199993133545 0 -1
74.80000305175781 78.69999694824219 -9.883000373840332 0 -1
79 73.5999984741211 12.965999603271484 1 -1
75.80000305175781 86.69999694824219 -10.939000129699707 0 -1
76.69999694824219 72.80000305175781 14.020999908447266 1 -1
80 90 -7.544000148773193 0 -1
71.19999694824219 89 -9.840999603271484 0 -1
71.30000305175781 85.9000015258789 -9.420999526977539 0 -1
73 75.30000305175781 -8.46500015258789 0 -1
72.5999984741211 86.80000305175781 -9.28499984741211 0 -1
78.0999984741211 78.4000015258789 16.88800048828125 1 -1
77.9000015258789 71.80000305175781 14.00100040435791 1 -1
76.0999984741211 76.9000015258789 -9.767999649047852 0 -1
79.69999694824219 87.4000015258789 -9.704999923706055 0 -1
74.69999694824219 87.19999694824219 -10.654000282287598 0 -1
75.30000305175781 86.4000015258789 -10.996999740600586 0 -1
72.30000305175781 75.0999984741211 -7.982999801635742 0 -1
75.5999984741211 75 -8.798999786376953 0 -1
72.80000305175781 87.0999984741211 -9.272000312805176 0 -1
77.5999984741211 80.19999694824219 17.354999542236328 1 -1
72 83.9000015258789 -10.840999603271484 0 -1
76.4000015258789 89.5999984741211 -10.27299976348877 0 -1
79.19999694824219 76 17.065000534057617 1 -1
79 72.80000305175781 13.95300006866455 1 -1
73.30000305175781 85.19999694824219 -10.229999542236328 0 -1
79.69999694824219 87.30000305175781 -9.711000442504883 0 -1
71.19999694824219 88.9000015258789 -9.8100004196167 0 -1
80 89.19999694824219 -9.013999938964844 0 -1
78.69999694824219 79.69999694824219 15.555000305175781 1 -1
77.9000015258789 71.69999694824219 13.980999946594238 1 -1
76 76.69999694824219 -9.633000373840332 0 -1
72.0999984741211 89.0999984741211 -9.859999656677246 0 -1
75 80.4000015258789 -9.819000244140625 0 -1
79.9000015258789 84.0999984741211 -10.185999870300293 0 -1
73.80000305175781 88.9000015258789 -10.824000358581543 0 -1
75.5999984741211 74.9000015258789 -8.652000427246094 0 -1
75.9000015258789 71.5999984741211 14.029999732971191 1 -1
77 88 -10.279999732971191 0 -1
73.69999694824219 71 14.031999588012695 1 -1
74.5999984741211 71.9000015258789 14.04699993133545 1 -1
77.5999984741211 80.30000305175781 18.319000244140625 1 -1
74.4000015258789 71.5999984741211 14.031999588012695 1 -1
76.30000305175781 88.9000015258789 -10.555999755859375 0 -1
79.0999984741211 72.69999694824219 13.949999809265137 1 -1
78.5999984741211 78.4000015258789 17.423999786376953 1 -1
75.5 88.80000305175781 -10.892000198364258 0 -1
75.30000305175781 86.0999984741211 -10.958000183105469 0 -1
73.80000305175781 89 -10.78600025177002 0 -1
76.4000015258789 89.69999694824219 -10.223999977111816 0 -1
77.9000015258789 74.80000305175781 -8.465999603271484 0 -1
73.4000015258789 86.0999984741211 -9.92199993133545 0 -1
72.5 83.9000015258789 -10.91100025177002 0 -1
72.9000015258789 82 -10.944999694824219 0 -1
79.0999984741211 72.5999984741211 13.96399974822998 1 -1
77.5 90 -9.715999603271484 0 -1
76 81.80000305175781 17.211999893188477 1 -1
71.9000015258789 76.19999694824219 -8.234000205993652 0 -1
74 79.30000305175781 -9.538999557495117 0 -1
79.80000305175781 74.19999694824219 17.229000091552734 1 -1
72.69999694824219 85.69999694824219 -9.694000244140625 0 -1
78.4000015258789 72.0999984741211 13.913999557495117 1 -1
74.80000305175781 78.5999984741211 -9.842000007629395 0 -1
71.4000015258789 86.5999984741211 -8.928000450134277 0 -1
76.0999984741211 77.19999694824219 -9.878999710083008 0 -1
71 77.30000305175781 -7.953999996185303 0 -1
79 85.9000015258789 -10.63599967956543 0 -1
73.5 79.5999984741211 -9.645999908447266 0 -1
71.30000305175781 85.80000305175781 -9.454000473022461 0 -1
72.5999984741211 86.9000015258789 -9.770999908447266 0 -1
72.9000015258789 82.0999984741211 -10.876999855041504 0 -1
71.5 83.9000015258789 -10.906000137329102 0 -1
77.9000015258789 71.9000015258789 13.980999946594238 1 -1
72.69999694824219 71.4000015258789 14.020000457763672 1 -1
75.80000305175781 86.80000305175781 -10.961999893188477 0 -1
75.5999984741211 75.0999984741211 -8.85099983215332 0 -1
74.69999694824219 76.5999984741211 -9.642999649047852 0 -1
73 75.69999694824219 -8.673999786376953 0 -1
76.9000015258789 89.80000305175781 -9.866000175476074 0 -1
71.80000305175781 89.5999984741211 -9.958000183105469 0 -1
76.0999984741211 77.30000305175781 -9.913999557495117 0 -1
74.0999984741211 80.19999694824219 -9.824000358581543 0 -1
71 77.19999694824219 -7.923999786376953 0 -1
78.4000015258789 72 13.937999725341797 1 -1
75.4000015258789 74.80000305175781 -8.76200008392334 0 -1
79.9000015258789 84.19999694824219 -10.163999557495117 0 -1
72.19999694824219 75.19999694824219 -7.985000133514404 0 -1
79.9000015258789 72.5 13.984999656677246 1 -1
72.69999694824219 71.30000305175781 14.041999816894531 1 -1
79.80000305175781 74 16.97100067138672 1 -1
73.5 79.4000015258789 -9.335000038146973 0 -1
79.5999984741211 72.5 13.944999694824219 1 -1
71.19999694824219 89.30000305175781 -9.746999740600586 0 -1
78.5999984741211 78.5 17.624000549316406 1 -1
73 75.5999984741211 -8.621000289916992 0 -1
75.5 88.9000015258789 -10.866999626159668 0 -1
74.5999984741211 71.80000305175781 14.04699993133545 1 -1
77.5 89.9000015258789 -9.717000007629395 0 -1
72.80000305175781 87.19999694824219 -9.470000267028809 0 -1
71.80000305175781 89.69999694824219 -9.994999885559082 0 -1
79.69999694824219 87.80000305175781 -9.376999855041504 0 -1
80 89.0999984741211 -9.00100040435791 0 -1
79.19999694824219 75.9000015258789 17.06599998474121 1 -1
74.80000305175781 85.19999694824219 -10.930999755859375 0 -1
73.9000015258789 81.9000015258789 -10.552000045776367 0 -1
74.5 78.4000015258789 -9.904999732971191 0 -1
71.30000305175781 84.19999694824219 -10.567999839782715 0 -1
74.19999694824219 76.5 -9.652999877929688 0 -1
78.0999984741211 78.5 16.888999938964844 1 -1
76.9000015258789 89.5999984741211 -10.031000137329102 0 -1
79.69999694824219 87.69999694824219 -9.420000076293945 0 -1
73.80000305175781 87.0999984741211 -9.944999694824219 0 -1
77.5999984741211 79.4000015258789 17.047000885009766 1 -1
79 72.9000015258789 13.972000122070312 1 -1
75.4000015258789 75 -8.76200008392334 0 -1
74.5999984741211 79.69999694824219 -9.548999786376953 0 -1
75.9000015258789 71.19999694824219 14.015000343322754 1 -1
76 76.5999984741211 -9.619000434875488 0 -1
71.0999984741211 76.5 -7.833000183105469 0 -1
73.9000015258789 81.80000305175781 -10.517000198364258 0 -1
80 89.30000305175781 -9.00100040435791 0 -1
79.5999984741211 72.69999694824219 13.970000267028809 1 -1
72.0999984741211 89 -9.861000061035156 0 -1
72.4000015258789 77.5 -8.869000434875488 0 -1
79.9000015258789 84 -10.163999557495117 0 -1
76.30000305175781 89 -10.569999694824219 0 -1
74 78.4000015258789 -9.739999771118164 0 -1
75 83.4000015258789 -10.73900032043457 0 -1
76.0999984741211 77.0999984741211 -9.82699966430664 0 -1
79.9000015258789 72.69999694824219 13.973999977111816 1 -1
75.80000305175781 86.9000015258789 -10.892999649047852 0 -1
79 86 -10.656000137329102 0 -1
75.5999984741211 75.19999694824219 -8.902999877929688 0 -1
73.4000015258789 86.19999694824219 -9.890000343322754 0 -1
72.0999984741211 88.9000015258789 -9.722999572753906 0 -1
71.4000015258789 87.5 -9.902999877929688 0 -1
76.4000015258789 89.80000305175781 -10.237000465393066 0 -1
72.4000015258789 77.4000015258789 -8.831999778747559 0 -1
74.5999984741211 71.69999694824219 14.029999732971191 1 -1
78.0999984741211 79.19999694824219 17.964000701904297 1 -1
79.5999984741211 72.5999984741211 13.977999687194824 1 -1
79.0999984741211 72.5 13.937000274658203 1 -1
71 76.80000305175781 -7.813000202178955 0 -1
75.5 89 -10.892000198364258 0 -1
73.69999694824219 80.4000015258789 -9.937999725341797 0 -1
72.19999694824219 75.0999984741211 -7.9079999923706055 0 -1
74.0999984741211 81.5999984741211 -10.541000366210938 0 -1
74.4000015258789 71.5 14.027999877929688 1 -1
77.5 89.80000305175781 -9.715999603271484 0 -1
73.5999984741211 79.19999694824219 -9.35099983215332 0 -1
74.80000305175781 85.0999984741211 -10.998000144958496 0 -1
71.30000305175781 84.0999984741211 -10.621999740600586 0 -1
79 85.80000305175781 -10.656000137329102 0 -1
78.19999694824219 80.0999984741211 16.81399917602539 1 -1
72.9000015258789 89.9000015258789 -10.3100004196167 0 -1
79.19999694824219 75.80000305175781 17.065000534057617 1 -1
75.9000015258789 71.4000015258789 14.029999732971191 1 -1
79.0999984741211 72.4000015258789 13.9399995803833 1 -1
76.9000015258789 89.69999694824219 -9.92199993133545 0 -1
78.69999694824219 75.9000015258789 17.114999771118164 1 -1
74.5999984741211 79.80000305175781 -9.526000022888184 0 -1
74.69999694824219 76.69999694824219 -9.76099967956543 0 -1
72 82.0999984741211 -10.652000427246094 0 -1
76.19999694824219 72.80000305175781 14.031999588012695 1 -1
76.4000015258789 89.4000015258789 -10.371999740600586 0 -1
79.19999694824219 77.80000305175781 17.041000366210938 1 -1
76 81.5999984741211 17.27400016784668 1 -1
78.5999984741211 77.0999984741211 16.583999633789062 1 -1
75.9000015258789 71.30000305175781 14.020999908447266 1 -1
76.9000015258789 89.5 -10.059000015258789 0 -1
78.19999694824219 80 16.481000900268555 1 -1
75.30000305175781 86.19999694824219 -10.928000450134277 0 -1
75.4000015258789 74.9000015258789 -8.697999954223633 0 -1
75.80000305175781 87 -10.869999885559082 0 -1
71.4000015258789 87.30000305175781 -9.991999626159668 0 -1
71.0999984741211 76.4000015258789 -7.906000137329102 0 -1
72.69999694824219 71.19999694824219 14.024999618530273 1 -1
71.19999694824219 89.19999694824219 -9.71500015258789 0 -1
77.9000015258789 73.5 11.744000434875488 1 -1
71.80000305175781 89.80000305175781 -9.98799991607666 0 -1
79.9000015258789 72.5999984741211 13.970999717712402 1 -1
77.9000015258789 75.19999694824219 -8.631999969482422 0 -1
74 78.5 -9.741000175476074 0 -1
74.5999984741211 72.0999984741211 14.041999816894531 1 -1
75 83.30000305175781 -10.699999809265137 0 -1
73.4000015258789 87.9000015258789 -9.998000144958496 0 -1
74.4000015258789 71.30000305175781 14.001999855041504 1 -1
79.80000305175781 73.9000015258789 16.951000213623047 1 -1
74.5 78.5 -9.88700008392334 0 -1
76.0999984741211 77.5 -10.045999526977539 0 -1
73.80000305175781 87.19999694824219 -9.927000045776367 0 -1
74.19999694824219 76.4000015258789 -9.711999893188477 0 -1
73.69999694824219 80.5 -9.897000312805176 0 -1
72.19999694824219 75 -7.868000030517578 0 -1
75.5 82.4000015258789 17.167999267578125 1 -1
71.5 83.80000305175781 -10.925999641418457 0 -1
77.5999984741211 79.5 17.013999938964844 1 -1
71.80000305175781 89.9000015258789 -9.986000061035156 0 -1
76.30000305175781 88.0999984741211 -10.576000213623047 0 -1
79.69999694824219 87.5999984741211 -9.463000297546387 0 -1
74.19999694824219 76.30000305175781 -9.652999877929688 0 -1
79.5999984741211 72.30000305175781 13.946000099182129 1 -1
74.80000305175781 85 -10.97599983215332 0 -1
75.30000305175781 86.9000015258789 -10.723999977111816 0 -1
74.4000015258789 71.4000015258789 14.024999618530273 1 -1
79.9000015258789 84.4000015258789 -10.208000183105469 0 -1
77.5 89.69999694824219 -9.711000442504883 0 -1
71.30000305175781 84 -10.784000396728516 0 -1
75.4000015258789 75.5999984741211 -9.118000030517578 0 -1
75.5999984741211 81.80000305175781 16.68000030517578 1 -1
79.9000015258789 72.30000305175781 13.96500015258789 1 -1
79.69999694824219 88 -9.236000061035156 0 -1
79 73 13.967000007629395 1 -1
78.69999694824219 75.80000305175781 17.44300079345703 1 -1
71.19999694824219 89.0999984741211 -9.746999740600586 0 -1
73.9000015258789 81.69999694824219 -10.47599983215332 0 -1
80 89.4000015258789 -8.77400016784668 0 -1
71.0999984741211 76.30000305175781 -7.886000156402588 0 -1
78.69999694824219 76 17.179000854492188 1 -1
75.5 88.0999984741211 -10.913000106811523 0 -1
72.4000015258789 77.80000305175781 -8.78499984741211 0 -1
79.19999694824219 77.69999694824219 17.018999099731445 1 -1
79.5999984741211 72.19999694824219 13.942999839782715 1 -1
71.4000015258789 87.4000015258789 -9.734999656677246 0 -1
76 82.30000305175781 17.270999908447266 1 -1
71.5999984741211 76.4000015258789 -7.980000019073486 0 -1
75.30000305175781 86.80000305175781 -10.677000045776367 0 -1
75.5999984741211 81.9000015258789 16.6560001373291 1 -1
72.0999984741211 88.80000305175781 -9.758000373840332 0 -1
78.5999984741211 77.19999694824219 16.781999588012695 1 -1
74.5 78.69999694824219 -9.760000228881836 0 -1
76 76 -9.430000305175781 0 -1
76.19999694824219 72.5999984741211 14.057999610900879 1 -1
76.30000305175781 88.30000305175781 -10.576000213623047 0 -1
74.80000305175781 85.5 -10.993000030517578 0 -1
79 73.19999694824219 13.95199966430664 1 -1
78.0999984741211 79.30000305175781 17.60700035095215 1 -1
72.9000015258789 90 -10.215999603271484 0 -1
77.5999984741211 79.5999984741211 17.047000885009766 1 -1
72.4000015258789 77.69999694824219 -8.869000434875488 0 -1
77.9000015258789 75.0999984741211 -8.621999740600586 0 -1
74 78.5999984741211 -9.739999771118164 0 -1
71.5 83.5999984741211 -10.965999603271484 0 -1
78.19999694824219 79.9000015258789 18.031999588012695 1 -1
74.5999984741211 72 14.04699993133545 1 -1
73.5999984741211 79.30000305175781 -9.329000473022461 0 -1
74.5999984741211 79.4000015258789 -9.569999694824219 0 -1
74.69999694824219 76.30000305175781 -9.668000221252441 0 -1
76 75.80000305175781 -9.230999946594238 0 -1
74.4000015258789 71.19999694824219 14.008000373840332 1 -1
76.19999694824219 72.69999694824219 14.065999984741211 1 -1
79 85.69999694824219 -10.63599967956543 0 -1
73.4000015258789 88 -10.236000061035156 0 -1
79.5999984741211 72.4000015258789 13.942999839782715 1 -1
72 82.19999694824219 -10.831999778747559 0 -1
71.5 83.69999694824219 -10.986000061035156 0 -1
73.69999694824219 80.5999984741211 -9.937999725341797 0 -1
76.4000015258789 89.5 -10.223999977111816 0 -1
72.19999694824219 74.9000015258789 -7.889999866485596 0 -1
74.0999984741211 81.80000305175781 -10.467000007629395 0 -1
74.69999694824219 76.4000015258789 -9.642999649047852 0 -1
75.5999984741211 75.30000305175781 -8.968000411987305 0 -1
79.9000015258789 72.19999694824219 13.956000328063965 1 -1
77.5 89.5999984741211 -9.713000297546387 0 -1
79.0999984741211 72.30000305175781 13.92300033569336 1 -1
71.4000015258789 87.19999694824219 -9.991000175476074 0 -1
75.30000305175781 87 -10.677000045776367 0 -1
76.9000015258789 89.4000015258789 -10.11400032043457 0 -1
75.5 88.19999694824219 -10.930000305175781 0 -1
73.5999984741211 71.9000015258789 14.08899974822998 1 -1
71.30000305175781 84.4000015258789 -10.567999839782715 0 -1
72.69999694824219 71.5 14.015000343322754 1 -1
73.69999694824219 71.5999984741211 14.029000282287598 1 -1
74.0999984741211 81.9000015258789 -10.479999542236328 0 -1
72 82.30000305175781 -10.772000312805176 0 -1
71.19999694824219 89.5 -9.961999893188477 0 -1
71.5999984741211 76.30000305175781 -7.980000019073486 0 -1
79.19999694824219 77.5999984741211 17.183000564575195 1 -1
77.0999984741211 72.4000015258789 14.003000259399414 1 -1
76.19999694824219 72.5 14.050000190734863 1 -1
77.0999984741211 79.80000305175781 -9.744999885559082 0 -1
78.5999984741211 77.30000305175781 16.583999633789062 1 -1
79.0999984741211 72.19999694824219 13.934000015258789 1 -1
76 82.19999694824219 17.066999435424805 1 -1
79.9000015258789 84.30000305175781 -10.189000129699707 0 -1
74.19999694824219 76.69999694824219 -9.64799976348877 0 -1
79.80000305175781 73.80000305175781 16.97100067138672 1 -1
77.9000015258789 73.30000305175781 13.95300006866455 1 -1
79.9000015258789 72.4000015258789 13.975000381469727 1 -1
74.80000305175781 85.4000015258789 -10.989999771118164 0 -1
77.9000015258789 75.4000015258789 -8.72599983215332 0 -1
75.5 82.30000305175781 17.3439998626709 1 -1
73.80000305175781 87.30000305175781 -9.975000381469727 0 -1
74.5 78.5999984741211 -9.78600025177002 0 -1
76.30000305175781 88.19999694824219 -10.545000076293945 0 -1
78.5999984741211 76.80000305175781 17.149999618530273 1 -1
72.0999984741211 88.69999694824219 -9.722999572753906 0 -1
79.69999694824219 87.9000015258789 -9.333999633789062 0 -1
76 82.4000015258789 17.405000686645508 1 -1
74 78.69999694824219 -9.741000175476074 0 -1
71.0999984741211 76.69999694824219 -7.915999889373779 0 -1
71.5 83.5 -10.986000061035156 0 -1
73.80000305175781 87.4000015258789 -9.913000106811523 0 -1
79 73.0999984741211 13.972000122070312 1 -1
75.5999984741211 75.5 -9.104999542236328 0 -1
74.5999984741211 79.5 -9.567999839782715 0 -1
75.4000015258789 75.69999694824219 -9.17199993133545 0 -1
77.9000015258789 75.5 -8.77299976348877 0 -1
76 75.9000015258789 -9.359000205993652 0 -1
71.80000305175781 90 -9.95199966430664 0 -1
80 89.5 -8.656999588012695 0 -1
74.0999984741211 81.69999694824219 -10.588000297546387 0 -1
73.69999694824219 80.69999694824219 -9.979000091552734 0 -1
77.0999984741211 72.19999694824219 14.038999557495117 1 -1
74.5 78.80000305175781 -9.78600025177002 0 -1
78.69999694824219 76.0999984741211 17.114999771118164 1 -1
73.5999984741211 71.69999694824219 14.045000076293945 1 -1
72.19999694824219 74.80000305175781 -7.8420000076293945 0 -1
72.0999984741211 88.5999984741211 -9.758000373840332 0 -1
78.0999984741211 78.9000015258789 16.81599998474121 1 -1
72.9000015258789 89.5999984741211 -10.621000289916992 0 -1
79 72.30000305175781 13.934000015258789 1 -1
75.5999984741211 75.4000015258789 -9.173999786376953 0 -1
73.69999694824219 71.5 14.031999588012695 1 -1
78.9000015258789 71.30000305175781 13.979999542236328 1 -1
76.0999984741211 77.4000015258789 -10.00100040435791 0 -1
74.4000015258789 71.0999984741211 14.013999938964844 1 -1
76.4000015258789 89.0999984741211 -10.53499984741211 0 -1
76.30000305175781 88.4000015258789 -10.482000350952148 0 -1
79.0999984741211 73.19999694824219 13.937999725341797 1 -1
79.80000305175781 75.69999694824219 17.2450008392334 1 -1
75.5 88.30000305175781 -10.876999855041504 0 -1
77.5999984741211 79.69999694824219 17.013999938964844 1 -1
74.5999984741211 72.4000015258789 14.036999702453613 1 -1
79.5999984741211 71 13.972999572753906 1 -1
72.4000015258789 77.5999984741211 -8.831999778747559 0 -1
73.5999984741211 78.9000015258789 -9.517999649047852 0 -1
71.4000015258789 87.0999984741211 -9.940999984741211 0 -1
77.0999984741211 72.30000305175781 14.008000373840332 1 -1
72.9000015258789 89.69999694824219 -10.588000297546387 0 -1
79.9000015258789 83.5999984741211 -10.255000114440918 0 -1
77.5 89.5 -9.711000442504883 0 -1
74.80000305175781 85.30000305175781 -10.907999992370605 0 -1
71.30000305175781 84.30000305175781 -10.621999740600586 0 -1
75.5 82.19999694824219 16.58799934387207 1 -1
77.5999984741211 79.80000305175781 17.024999618530273 1 -1
79 85.5999984741211 -10.574000358581543 0 -1
78.19999694824219 80.30000305175781 16.30299949645996 1 -1
76.4000015258789 89.19999694824219 -10.529999732971191 0 -1
77.9000015258789 75.30000305175781 -8.585000038146973 0 -1
78.5999984741211 76.9000015258789 17.177000045776367 1 -1
76 76.19999694824219 -9.430000305175781 0 -1
78.80000305175781 71 13.96500015258789 1 -1
75.30000305175781 86.5999984741211 -10.996999740600586 0 -1
78.0999984741211 79.0999984741211 17.60700035095215 1 -1
72.4000015258789 77 -8.461000442504883 0 -1
74.5999984741211 79.5999984741211 -9.526000022888184 0 -1
74.69999694824219 76.5 -9.595000267028809 0 -1
80 86.5999984741211 -9.416999816894531 0 -1
76.9000015258789 89.30000305175781 -10.152000427246094 0 -1
72 82.4000015258789 -10.831999778747559 0 -1
79.19999694824219 77.5 17.104999542236328 1 -1
74 78.80000305175781 -9.795000076293945 0 -1
71.0999984741211 76.5999984741211 -7.936999797821045 0 -1
73.4000015258789 87.5999984741211 -9.989999771118164 0 -1
79.0999984741211 73.0999984741211 13.925000190734863 1 -1
75.5999984741211 75.5999984741211 -9.173999786376953 0 -1
76.0999984741211 77.69999694824219 -10.133999824523926 0 -1
78.19999694824219 80.19999694824219 16.805999755859375 1 -1
78.80000305175781 71.0999984741211 13.967000007629395 1 -1
73.5999984741211 71.80000305175781 14.074999809265137 1 -1
71.80000305175781 89.0999984741211 -9.906999588012695 0 -1
71.19999694824219 89.4000015258789 -9.52400016784668 0 -1
73.5999984741211 79.0999984741211 -9.329000473022461 0 -1
78.9000015258789 71.4000015258789 13.960000038146973 1 -1
73.69999694824219 71.4000015258789 14.083999633789062 1 -1
74.5999984741211 72.30000305175781 14.048999786376953 1 -1
74.19999694824219 76.5999984741211 -9.711999893188477 0 -1
75 83.9000015258789 -11.116999626159668 0 -1
79 72.19999694824219 13.944999694824219 1 -1
75.5 88.4000015258789 -10.859000205993652 0 -1
71.5999984741211 76.0999984741211 -7.954999923706055 0 -1
74.80000305175781 85.69999694824219 -10.998000144958496 0 -1
76.0999984741211 77.80000305175781 -10.178000450134277 0 -1
75.4000015258789 75.30000305175781 -8.956999778747559 0 -1
79.4000015258789 73.30000305175781 13.92300033569336 1 -1
71.0999984741211 76 -7.823999881744385 0 -1
73.4000015258789 87.80000305175781 -9.904000282287598 0 -1
79.9000015258789 83.69999694824219 -10.222999572753906 0 -1
72.19999694824219 75.69999694824219 -7.863999843597412 0 -1
73.69999694824219 80.80000305175781 -9.861000061035156 0 -1
79.9000015258789 73 13.944000244140625 1 -1
75.5 82.0999984741211 16.604000091552734 1 -1
73.80000305175781 87.5 -10.239999771118164 0 -1
77.0999984741211 72.5999984741211 14.012999534606934 1 -1
71.19999694824219 89.80000305175781 -9.74899959564209 0 -1
73.5999984741211 72.0999984741211 14.032999992370605 1 -1
71.80000305175781 89.19999694824219 -9.892999649047852 0 -1
74.5 77.9000015258789 -9.916000366210938 0 -1
77.5 89.4000015258789 -9.508999824523926 0 -1
76 82 17.066999435424805 1 -1
79 72.4000015258789 13.92300033569336 1 -1
72.0999984741211 88.5 -9.86299991607666 0 -1
78.0999984741211 79 16.834999084472656 1 -1
76.9000015258789 89.0999984741211 -10.229000091552734 0 -1
71.30000305175781 84.69999694824219 -9.920000076293945 0 -1
75.4000015258789 81.9000015258789 16.492000579833984 1 -1
73.80000305175781 87.5999984741211 -10.303999900817871 0 -1
74.19999694824219 76 -9.399999618530273 0 -1
78.69999694824219 76.19999694824219 17.570999145507812 1 -1
78.5999984741211 77 17.190000534057617 1 -1
77.9000015258789 75.69999694824219 -8.77299976348877 0 -1
78.9000015258789 71.19999694824219 13.963000297546387 1 -1
79.9000015258789 83.5 -10.286999702453613 0 -1
76.19999694824219 72.4000015258789 14.057999610900879 1 -1
79.19999694824219 77.4000015258789 17.229000091552734 1 -1
76.30000305175781 88.5 -10.512999534606934 0 -1
79.4000015258789 73.4000015258789 11.729000091552734 1 -1
79.9000015258789 73.19999694824219 13.925999641418457 1 -1
77.9000015258789 73.4000015258789 11.737000465393066 1 -1
77.0999984741211 72.69999694824219 14.005999565124512 1 -1
77.5999984741211 78.9000015258789 17.065000534057617 1 -1
79.80000305175781 75.5999984741211 17.222999572753906 1 -1
76.0999984741211 77.5999984741211 -10.09000015258789 0 -1
75.4000015258789 75.5 -9.17199993133545 0 -1
73 74 -7.789000034332275 0 -1
73.5999984741211 79 -9.51099967956543 0 -1
72.0999984741211 88.4000015258789 -9.82800006866455 0 -1
74 77.9000015258789 -9.895999908447266 0 -1
78.19999694824219 80.5999984741211 16.944000244140625 1 -1
75.5 88.5 -10.876999855041504 0 -1
71.5 83.4000015258789 -10.916999816894531 0 -1
74.5999984741211 72.19999694824219 14.045000076293945 1 -1
74.9000015258789 82.80000305175781 -10.89799976348877 0 -1
71.4000015258789 88 -9.946999549865723 0 -1
72.9000015258789 89.80000305175781 -10.621000289916992 0 -1
74.5999984741211 79.19999694824219 -9.569999694824219 0 -1
74.69999694824219 76.0999984741211 -9.668000221252441 0 -1
73.69999694824219 71.30000305175781 14.072999954223633 1 -1
76 76.0999984741211 -9.477999687194824 0 -1
76.4000015258789 89.30000305175781 -10.576000213623047 0 -1
74.80000305175781 85.5999984741211 -10.989999771118164 0 -1
73.69999694824219 79.9000015258789 -9.439000129699707 0 -1
72.4000015258789 76.9000015258789 -8.446999549865723 0 -1
72.9000015258789 89.4000015258789 -10.48900032043457 0 -1
72.19999694824219 75.5999984741211 -7.854000091552734 0 -1
76.19999694824219 72.19999694824219 14.01099967956543 1 -1
78.0999984741211 79.69999694824219 17.513999938964844 1 -1
80 86.69999694824219 -9.42199993133545 0 -1
75.5 82 16.6200008392334 1 -1
76.9000015258789 89.19999694824219 -10.11400032043457 0 -1
78.69999694824219 76.4000015258789 17.570999145507812 1 -1
79.0999984741211 73 13.972000122070312 1 -1
77.0999984741211 72.5 14.008000373840332 1 -1
72 82.5 -10.802000045776367 0 -1
74.69999694824219 76.19999694824219 -9.583999633789062 0 -1
73.4000015258789 87.69999694824219 -9.871999740600586 0 -1
79.5999984741211 71.0999984741211 13.954999923706055 1 -1
73.4000015258789 87.4000015258789 -9.947999954223633 0 -1
74.4000015258789 71 14.008000373840332 1 -1
78.80000305175781 71.19999694824219 13.979999542236328 1 -1
77.5 89.30000305175781 -9.574000358581543 0 -1
72.4000015258789 76.80000305175781 -8.461000442504883 0 -1
73.5999984741211 79.69999694824219 -9.635000228881836 0 -1
76.30000305175781 89.69999694824219 -9.454000473022461 0 -1
76.5 87.9000015258789 -10.545999526977539 0 -1
78.5999984741211 77.5999984741211 17.006000518798828 1 -1
76.19999694824219 72.30000305175781 14.013999938964844 1 -1
71.30000305175781 84.5999984741211 -10.232999801635742 0 -1
79.0999984741211 72.9000015258789 13.949999809265137 1 -1
71.0999984741211 75.9000015258789 -7.84499979019165 0 -1
77.4000015258789 82.4000015258789 16.569000244140625 1 -1
72 82.5999984741211 -10.843000411987305 0 -1
79.80000305175781 75.4000015258789 17.250999450683594 1 -1
80 86.9000015258789 -9.411999702453613 0 -1
79.19999694824219 77.30000305175781 17.08099937438965 1 -1
75.4000015258789 75.4000015258789 -9.118000030517578 0 -1
71.5 83.19999694824219 -11.135000228881836 0 -1
78.9000015258789 71.5999984741211 13.960000038146973 1 -1
75.30000305175781 86.69999694824219 -10.819000244140625 0 -1
76 75.4000015258789 -8.947999954223633 0 -1
74.5 78 -9.940999984741211 0 -1
71.5999984741211 76.19999694824219 -7.985000133514404 0 -1
77.9000015258789 73 13.991000175476074 1 -1
74 78 -9.928999900817871 0 -1
74.9000015258789 82.9000015258789 -10.9350004196167 0 -1
71.19999694824219 89.69999694824219 -9.961999893188477 0 -1
79.9000015258789 73.0999984741211 13.9350004196167 1 -1
77.0999984741211 78.0999984741211 -10.178999900817871 0 -1
74.19999694824219 75.9000015258789 -9.312999725341797 0 -1
76 82.0999984741211 17.003000259399414 1 -1
73.69999694824219 71.19999694824219 14.062000274658203 1 -1
71.5 83.30000305175781 -10.980999946594238 0 -1
79 72.5 13.96399974822998 1 -1
71.80000305175781 89.30000305175781 -9.973999977111816 0 -1
73.5999984741211 72 14.039999961853027 1 -1
74.5999984741211 79.30000305175781 -9.607000350952148 0 -1
75.5999984741211 75.69999694824219 -9.29800033569336 0 -1
76.19999694824219 72.0999984741211 14.008999824523926 1 -1
71.4000015258789 87.9000015258789 -9.866999626159668 0 -1
79.9000015258789 83.9000015258789 -10.229999542236328 0 -1
76.80000305175781 89.80000305175781 -9.92199993133545 0 -1
75.5 89.5999984741211 -9.751999855041504 0 -1
79.9000015258789 72.80000305175781 13.923999786376953 1 -1
73.80000305175781 87.69999694824219 -10.432999610900879 0 -1
78.69999694824219 76.30000305175781 17.375999450683594 1 -1
71.19999694824219 89.5999984741211 -9.890999794006348 0 -1
71.80000305175781 89.4000015258789 -9.805999755859375 0 -1
76.4000015258789 88.9000015258789 -10.53499984741211 0 -1
74.19999694824219 75.80000305175781 -9.23900032043457 0 -1
75 83.80000305175781 -10.583000183105469 0 -1
72.19999694824219 75.5 -7.882999897003174 0 -1
77.5999984741211 79 17.051000595092773 1 -1
75.30000305175781 76.0999984741211 -9.380000114440918 0 -1
76.9000015258789 73.69999694824219 -7.839000225067139 0 -1
71.30000305175781 84.5 -10.522000312805176 0 -1
73.80000305175781 87.80000305175781 -10.47599983215332 0 -1
77.5 89.19999694824219 -9.638999938964844 0 -1
78.5999984741211 77.69999694824219 17.086000442504883 1 -1
78.19999694824219 80.5 16.860000610351562 1 -1
76.5999984741211 78 -10.14900016784668 0 -1
73.4000015258789 87.30000305175781 -9.57699966430664 0 -1
75.30000305175781 87.4000015258789 -10.793999671936035 0 -1
76.30000305175781 89.5999984741211 -9.630000114440918 0 -1
74.5 78.19999694824219 -9.940999984741211 0 -1
77.4000015258789 82.19999694824219 16.76099967956543 1 -1
73.69999694824219 80 -9.77400016784668 0 -1
76.5 88 -10.562000274658203 0 -1
79.80000305175781 75.5 17.2450008392334 1 -1
74.80000305175781 86 -10.958999633789062 0 -1
71.0999984741211 75.80000305175781 -7.921999931335449 0 -1
80 86.80000305175781 -9.416999816894531 0 -1
75.5 82.9000015258789 16.458999633789062 1 -1
77.9000015258789 73.19999694824219 13.965999603271484 1 -1
77.5999984741211 79.0999984741211 17.065000534057617 1 -1
72.4000015258789 77.30000305175781 -8.720999717712402 0 -1
76.4000015258789 89 -10.529999732971191 0 -1
72.0999984741211 88.30000305175781 -9.86299991607666 0 -1
75.30000305175781 87.30000305175781 -10.812000274658203 0 -1
76 82.80000305175781 16.6299991607666 1 -1
71.5999984741211 75.9000015258789 -7.979000091552734 0 -1
79.19999694824219 77.19999694824219 16.555999755859375 1 -1
71.5 83.0999984741211 -11.163999557495117 0 -1
76.0999984741211 76 -9.385000228881836 0 -1
79 72.69999694824219 13.972000122070312 1 -1
78.0999984741211 79.80000305175781 18.031999588012695 1 -1
72.9000015258789 89.5 -10.588000297546387 0 -1
74.69999694824219 75.80000305175781 -9.192000389099121 0 -1
78.19999694824219 80.4000015258789 16.86199951171875 1 -1
76 75.5 -8.991999626159668 0 -1
75.4000015258789 89.4000015258789 -9.791000366210938 0 -1
71.4000015258789 87.69999694824219 -9.902999877929688 0 -1
77.4000015258789 82.30000305175781 16.665000915527344 1 -1
78 81.19999694824219 16.707000732421875 1 -1
74.5999984741211 78.9000015258789 -9.798999786376953 0 -1
76.80000305175781 80.69999694824219 17.358999252319336 1 -1
77.9000015258789 73.0999984741211 13.977999687194824 1 -1
72.4000015258789 77.19999694824219 -8.758000373840332 0 -1
77.9000015258789 75.5999984741211 -8.72599983215332 0 -1
78.69999694824219 76.5 17.766000747680664 1 -1
74 78.0999984741211 -9.880000114440918 0 -1
72.69999694824219 71.0999984741211 14.041999816894531 1 -1
78.80000305175781 71.30000305175781 13.961999893188477 1 -1
75 83.5999984741211 -10.583000183105469 0 -1
72.0999984741211 88.19999694824219 -9.987000465393066 0 -1
73.0999984741211 71.5 14.015999794006348 1 -1
73.4000015258789 87.5 -9.996999740600586 0 -1
76.80000305175781 89.69999694824219 -9.866000175476074 0 -1
76.30000305175781 89.80000305175781 -9.630000114440918 0 -1
74.69999694824219 75.9000015258789 -9.163999557495117 0 -1
75.5 89.69999694824219 -9.86299991607666 0 -1
73.5999984741211 79.80000305175781 -9.670000076293945 0 -1
77.5 89.0999984741211 -9.91100025177002 0 -1
79.80000305175781 75.30000305175781 17.05500030517578 1 -1
79.0999984741211 72.80000305175781 13.956999778747559 1 -1
72.19999694824219 75.4000015258789 -7.874000072479248 0 -1
76.5999984741211 77.9000015258789 -10.10099983215332 0 -1
72.69999694824219 71 14.015000343322754 1 -1
78.80000305175781 71.4000015258789 13.956000328063965 1 -1
72 82.69999694824219 -10.972999572753906 0 -1
80 87 -9.477999687194824 0 -1
75 83.69999694824219 -10.621999740600586 0 -1
72 82.80000305175781 -10.956000328063965 0 -1
71.19999694824219 90 -9.74899959564209 0 -1
76 82.69999694824219 16.775999069213867 1 -1
76 75.30000305175781 -8.998000144958496 0 -1
79.19999694824219 77.0999984741211 16.56100082397461 1 -1
74.5 78.0999984741211 -9.92300033569336 0 -1
71.0999984741211 76.19999694824219 -7.906000137329102 0 -1
75.30000305175781 87.5 -10.923999786376953 0 -1
77.4000015258789 82.0999984741211 16.63800048828125 1 -1
74.0999984741211 71 14.043999671936035 1 -1
73.69999694824219 80.0999984741211 -9.73799991607666 0 -1
78.5999984741211 77.80000305175781 17.006000518798828 1 -1
74.80000305175781 85.9000015258789 -10.998000144958496 0 -1
78.9000015258789 71.5 13.961000442504883 1 -1
71.30000305175781 84.9000015258789 -9.711999893188477 0 -1
75.5 82.80000305175781 16.23699951171875 1 -1
78.0999984741211 87.69999694824219 -10.3149995803833 0 -1
76.0999984741211 75.80000305175781 -9.25 0 -1
71.5999984741211 75.80000305175781 -7.651000022888184 0 -1
79.4000015258789 73.69999694824219 12.95300006866455 1 -1
77.0999984741211 71.9000015258789 14.036999702453613 1 -1
71.4000015258789 87.80000305175781 -9.894000053405762 0 -1
71.5999984741211 76 -7.992000102996826 0 -1
74.19999694824219 76.19999694824219 -9.47700023651123 0 -1
74.5999984741211 79 -9.772000312805176 0 -1
77.9000015258789 72.80000305175781 14.053999900817871 1 -1
71.5 83 -11.116999626159668 0 -1
75 83.5 -10.621999740600586 0 -1
79 72.5999984741211 13.970999717712402 1 -1
79.9000015258789 83.80000305175781 -10.190999984741211 0 -1
79.9000015258789 72.9000015258789 13.9350004196167 1 -1
77.5999984741211 79.19999694824219 17.051000595092773 1 -1
76.0999984741211 75.9000015258789 -9.302000045776367 0 -1
71.80000305175781 89.5 -9.984000205993652 0 -1
74 78.19999694824219 -9.73900032043457 0 -1
77.69999694824219 75.19999694824219 -8.70199966430664 0 -1
76.80000305175781 89.5999984741211 -9.92199993133545 0 -1
77.0999984741211 77.9000015258789 -10.085000038146973 0 -1
75.5 89.80000305175781 -9.529000282287598 0 -1
73.0999984741211 71.5999984741211 14.022000312805176 1 -1
73.80000305175781 87.9000015258789 -10.432999610900879 0 -1
75.5 74.4000015258789 -8.47700023651123 0 -1
79 71.80000305175781 13.958999633789062 1 -1
76.80000305175781 80.80000305175781 17.36400032043457 1 -1
74.5 78.30000305175781 -9.88700008392334 0 -1
73.0999984741211 81.9000015258789 -10.722000122070312 0 -1
72.80000305175781 84 -10.680999755859375 0 -1
74.19999694824219 76.0999984741211 -9.53600025177002 0 -1
77.80000305175781 76.5 -9.232000350952148 0 -1
77.0999984741211 71.69999694824219 14.036999702453613 1 -1
78.0999984741211 79.4000015258789 17.964000701904297 1 -1
72.9000015258789 89.0999984741211 -10.557000160217285 0 -1
74.5 72.0999984741211 14.027000427246094 1 -1
76 82.9000015258789 16.483999252319336 1 -1
72.19999694824219 75.30000305175781 -7.882999897003174 0 -1
72.9000015258789 89.19999694824219 -10.49899959564209 0 -1
74 72.0999984741211 14.069000244140625 1 -1
76.19999694824219 72 14.01099967956543 1 -1
76.4000015258789 88.5999984741211 -10.526000022888184 0 -1
79.19999694824219 77 16.743000030517578 1 -1
71.0999984741211 76.0999984741211 -7.886000156402588 0 -1
71.4000015258789 87.5999984741211 -9.847000122070312 0 -1
79.5999984741211 71.5 13.946999549865723 1 -1
74.80000305175781 85.80000305175781 -10.994999885559082 0 -1
75.5 82.69999694824219 16.458999633789062 1 -1
72.4000015258789 77.0999984741211 -8.635000228881836 0 -1
79.0999984741211 73.69999694824219 12.965999603271484 1 -1
75.4000015258789 89.5 -9.996000289916992 0 -1
72.0999984741211 88.0999984741211 -9.994999885559082 0 -1
76 75.69999694824219 -9.079000473022461 0 -1
78 81.0999984741211 16.770000457763672 1 -1
78.19999694824219 88.9000015258789 -9.63700008392334 0 -1
71.30000305175781 84.80000305175781 -9.835000038146973 0 -1
73.5999984741211 79.4000015258789 -9.468000411987305 0 -1
77.0999984741211 71.80000305175781 14.019000053405762 1 -1
78.19999694824219 80.80000305175781 16.827999114990234 1 -1
80 86.0999984741211 -9.373000144958496 0 -1
73.69999694824219 80.19999694824219 -9.77400016784668 0 -1
78.69999694824219 76.5999984741211 17.33300018310547 1 -1
73.9000015258789 80.9000015258789 -10.060999870300293 0 -1
