VERSION .7
FIELDS x y z label object
SIZE 4 4 4 4 4
TYPE F F F I I
COUNT 1 1 1 1 1
WIDTH 897
HEIGHT 1
POINTS 897
VIEWPOINT 0 0 0 1 0 0 0
DATA ascii
73.80000305175781 79 -9.303999900817871 0 -1
78.80000305175781 88.5999984741211 -8.350000381469727 0 -1
75.19999694824219 82.80000305175781 -10.524999618530273 0 -1
78.4000015258789 84.19999694824219 -10.793000221252441 0 -1
74.80000305175781 76.80000305175781 18.113000869750977 1 -1
76.0999984741211 71.5 14.140999794006348 1 -1
72.5999984741211 85.0999984741211 -9.987000465393066 1 -1
71.0999984741211 73.80000305175781 12.071000099182129 1 -1
79.5 85.80000305175781 -9.814000129699707 0 -1
79.80000305175781 77.5 -9.515000343322754 0 -1
79.5 78.5999984741211 -9.979000091552734 0 -1
74.30000305175781 72.4000015258789 22.073999404907227 1 -1
73.9000015258789 79.19999694824219 15.13700008392334 1 -1
72.69999694824219 78.80000305175781 3.3239998817443848 1 -1
72.30000305175781 72.80000305175781 14.097999572753906 1 -1
72.5 88.19999694824219 -9.517999649047852 0 -1
73.5 74.69999694824219 13.232999801635742 1 -1
74.19999694824219 82.5 -10.555999755859375 0 -1
77.5999984741211 71.30000305175781 14.121999740600586 1 -1
76.80000305175781 78 18.14900016784668 1 -1
78.0999984741211 77.5999984741211 -9.630999565124512 0 -1
71.9000015258789 84.80000305175781 -10.861000061035156 0 -1
76.30000305175781 76.4000015258789 18.069000244140625 1 -1
71.5999984741211 74.19999694824219 13.220000267028809 1 -1
71.5999984741211 82.9000015258789 -10.86400032043457 0 -1
73.9000015258789 89.9000015258789 -7.943999767303467 0 -1
71.19999694824219 80.9000015258789 -9.894000053405762 0 -1
73.30000305175781 76.69999694824219 5.5980000495910645 1 -1
74.0999984741211 87.5999984741211 -9.734999656677246 0 -1
76.9000015258789 71.5999984741211 14.145999908447266 1 -1
75 75.0999984741211 -8.39900016784668 0 -1
71.80000305175781 75 13.168999671936035 1 -1
74 73.4000015258789 21.06399917602539 1 -1
74.4000015258789 88.19999694824219 -10.425999641418457 0 -1
78 73.69999694824219 11.857999801635742 1 -1
76.80000305175781 72.4000015258789 14.149999618530273 1 -1
76.30000305175781 77.9000015258789 17.902999877929688 1 -1
76.4000015258789 77.5999984741211 18.4950008392334 1 -1
71.4000015258789 72.5 14.187999725341797 1 -1
75.5999984741211 73.5999984741211 11.878000259399414 1 -1
75.19999694824219 74.0999984741211 13.196000099182129 1 -1
75.0999984741211 89.9000015258789 -7.869999885559082 0 -1
78.5 77.0999984741211 18.393999099731445 1 -1
72.0999984741211 74 19.64900016784668 1 -1
74.5 86.9000015258789 -9.942000389099121 0 -1
73.5999984741211 89.4000015258789 -9.722999572753906 0 -1
78 73.5 11.88599967956543 1 -1
73.4000015258789 72 14.21500015258789 1 -1
77.30000305175781 75.9000015258789 18.261999130249023 1 -1
79.5999984741211 86.0999984741211 -9.920000076293945 0 -1
73.80000305175781 79.0999984741211 -9.277999877929688 0 -1
74.19999694824219 73.80000305175781 14.222000122070312 1 -1
73 82.0999984741211 -10.567999839782715 0 -1
77.5999984741211 71.4000015258789 14.20300006866455 1 -1
75.9000015258789 78.19999694824219 17.64699935913086 1 -1
73.9000015258789 72.5 14.15999984741211 1 -1
71.80000305175781 74.9000015258789 13.168000221252441 1 -1
71.30000305175781 75.80000305175781 -7.789000034332275 0 -1
76.4000015258789 79.19999694824219 -10.779000282287598 0 -1
77.9000015258789 82.19999694824219 -10.63700008392334 0 -1
72.69999694824219 76.80000305175781 -8.432000160217285 0 -1
79.80000305175781 86.9000015258789 -8.888999938964844 0 -1
72.5999984741211 85.4000015258789 -9.979000091552734 1 -1
78.19999694824219 71.80000305175781 14.142000198364258 1 -1
71.69999694824219 82.0999984741211 8.083000183105469 1 -1
74.5 71.30000305175781 21.016000747680664 1 -1
78.30000305175781 76.80000305175781 19.270999908447266 1 -1
77.19999694824219 77.80000305175781 18.261999130249023 1 -1
74.30000305175781 79 16.018999099731445 1 -1
73.69999694824219 86.5999984741211 -9.63700008392334 0 -1
76 74.0999984741211 13.20199966430664 1 -1
73.9000015258789 89.80000305175781 -8.392000198364258 0 -1
71.69999694824219 72.5 14.217000007629395 1 -1
74.80000305175781 77.30000305175781 18.089000701904297 1 -1
71.0999984741211 84.5 -10.892999649047852 0 -1
71.4000015258789 79.19999694824219 -9.116000175476074 0 -1
71.9000015258789 79.69999694824219 -9.41100025177002 0 -1
76.9000015258789 81.4000015258789 -10.67199993133545 0 -1
72.5 75.0999984741211 19.57900047302246 1 -1
74.5999984741211 81.30000305175781 4.3979997634887695 1 -1
72.19999694824219 72.5 14.130999565124512 1 -1
72.9000015258789 79.69999694824219 -9.454000473022461 0 -1
77.5999984741211 76.9000015258789 19.64900016784668 1 -1
75.4000015258789 73.4000015258789 14.170999526977539 1 -1
79.5 76.0999984741211 18.735000610351562 1 -1
71.4000015258789 79 -9.003000259399414 0 -1
74.19999694824219 73.9000015258789 14.305999755859375 1 -1
79.5999984741211 77.19999694824219 -9.682000160217285 0 -1
74.4000015258789 88.4000015258789 -10.425999641418457 0 -1
73 82 -10.404000282287598 0 -1
78.19999694824219 71.69999694824219 14.138999938964844 1 -1
75.19999694824219 74 13.012999534606934 1 -1
75.9000015258789 78.0999984741211 17.63599967956543 1 -1
76 84.19999694824219 -10.59000015258789 0 -1
75.0999984741211 89.80000305175781 -7.974999904632568 0 -1
73.5 82.4000015258789 -10.597999572753906 0 -1
77.9000015258789 82.30000305175781 -10.616999626159668 0 -1
73.0999984741211 89.19999694824219 -10.550000190734863 0 -1
76.69999694824219 75.5999984741211 19.174999237060547 1 -1
78.0999984741211 71.0999984741211 14.131999969482422 1 -1
72.0999984741211 74.0999984741211 19.996000289916992 1 -1
72.69999694824219 76.9000015258789 -8.54699993133545 0 -1
79.69999694824219 73.80000305175781 13.097999572753906 1 -1
74.69999694824219 84.5 -10.456000328063965 0 -1
74.5999984741211 87.5999984741211 -10.98900032043457 0 -1
74.30000305175781 79.19999694824219 16.018999099731445 1 -1
73.9000015258789 72.4000015258789 14.170999526977539 1 -1
75.80000305175781 77.9000015258789 17.631999969482422 1 -1
79.5999984741211 86.4000015258789 -9.809000015258789 0 -1
72.80000305175781 74.5999984741211 20.152000427246094 1 -1
77.80000305175781 86.9000015258789 -6.929999828338623 1 -1
72.5 88.4000015258789 -9.517999649047852 0 -1
72.5999984741211 78.30000305175781 -8.751999855041504 0 -1
80 78.0999984741211 -9.701000213623047 0 -1
77.5999984741211 76.80000305175781 19.209999084472656 1 -1
78.30000305175781 76.9000015258789 18.39299964904785 1 -1
77.80000305175781 77.19999694824219 18.031999588012695 1 -1
71.5999984741211 74 13.220000267028809 1 -1
76.5999984741211 89.69999694824219 -8.47700023651123 0 -1
75.19999694824219 82.5999984741211 -10.524999618530273 0 -1
77.0999984741211 89.9000015258789 -9.878999710083008 0 -1
76.30000305175781 71.0999984741211 14.157999992370605 1 -1
74.4000015258789 80.5999984741211 4.306000232696533 1 -1
74.5 79.9000015258789 16.445999145507812 1 -1
71.5 77.5 -0.9589999914169312 1 -1
79.19999694824219 75.30000305175781 18.344999313354492 1 -1
75 74.9000015258789 -8.300999641418457 0 -1
72 74 11.95199966430664 1 -1
74 88.80000305175781 -10.581000328063965 0 -1
77.69999694824219 89.0999984741211 -5.9079999923706055 1 -1
74.30000305175781 72.19999694824219 21.259000778198242 1 -1
76.80000305175781 73 14.13700008392334 1 -1
71.4000015258789 72.69999694824219 14.206000328063965 1 -1
77.5 80.4000015258789 -10.748000144958496 0 -1
77.4000015258789 88.5 -9.770999908447266 0 -1
75.80000305175781 77.19999694824219 17.9060001373291 1 -1
77.80000305175781 76.9000015258789 19.64900016784668 1 -1
79.5999984741211 77.30000305175781 -9.630000114440918 0 -1
72.9000015258789 79.80000305175781 -9.583999633789062 0 -1
78.30000305175781 86.69999694824219 -9.954999923706055 0 -1
74.69999694824219 84.5999984741211 -10.498000144958496 0 -1
71.19999694824219 81.4000015258789 -10.246000289916992 0 -1
73.69999694824219 73.4000015258789 21.03700065612793 1 -1
71.69999694824219 81.0999984741211 -9.949000358581543 0 -1
71.0999984741211 73.9000015258789 11.89900016784668 1 -1
79.4000015258789 88.80000305175781 -7.767000198364258 0 -1
79.5 85.69999694824219 -9.960000038146973 0 -1
79.5 78.5 -9.916000366210938 0 -1
77.19999694824219 77.5999984741211 18.204999923706055 1 -1
79.69999694824219 73.9000015258789 13.100000381469727 1 -1
73.5 82.19999694824219 -10.597999572753906 0 -1
71.69999694824219 72.69999694824219 14.217000007629395 1 -1
74.9000015258789 73.80000305175781 11.932999610900879 1 -1
75.9000015258789 77 17.895000457763672 1 -1
80 76.5 18.474000930786133 1 -1
76.9000015258789 81.19999694824219 -10.67199993133545 0 -1
71 82.0999984741211 -10.53499984741211 0 -1
75 75 -8.34000015258789 0 -1
76.9000015258789 87.0999984741211 3.24399995803833 1 -1
79.5999984741211 86.5 -9.772000312805176 0 -1
75.5999984741211 83.5 -10.894000053405762 0 -1
74.5 71.5 21.125 1 -1
75.19999694824219 74.19999694824219 13.152999877929688 1 -1
76 84 -10.809000015258789 0 -1
74.69999694824219 74.0999984741211 13.246000289916992 1 -1
79.30000305175781 89.5999984741211 -6.994999885559082 0 -1
74 73.5 21.13800048828125 1 -1
77 78.4000015258789 -9.960000038146973 0 -1
75.5999984741211 73.5 12.958999633789062 1 -1
71.5999984741211 82.5 -10.788000106811523 0 -1
72 74.0999984741211 -6.978000164031982 0 -1
71.19999694824219 81.30000305175781 -10.3149995803833 0 -1
71 83.80000305175781 -10.71399974822998 0 -1
73.5 73.80000305175781 20.240999221801758 1 -1
71.0999984741211 84.9000015258789 -5.5980000495910645 1 -1
74.5 86.80000305175781 -9.984999656677246 0 -1
77.80000305175781 86.19999694824219 -9.45199966430664 0 -1
76.80000305175781 77.9000015258789 18.176000595092773 1 -1
79.80000305175781 86.80000305175781 -8.946999549865723 0 -1
73.4000015258789 79.80000305175781 -9.668999671936035 0 -1
75.9000015258789 78.30000305175781 17.63599967956543 1 -1
77.30000305175781 76 18.239999771118164 1 -1
78 79.4000015258789 -9.944000244140625 0 -1
78.5 77.5 18.426000595092773 1 -1
74.80000305175781 77.19999694824219 18.18000030517578 1 -1
73.69999694824219 86.69999694824219 -9.781000137329102 0 -1
73.4000015258789 72.4000015258789 14.255999565124512 1 -1
72.5999984741211 85.5 -9.965999603271484 1 -1
72.69999694824219 86.0999984741211 -9.647000312805176 1 -1
80 76.30000305175781 18.673999786376953 1 -1
79.30000305175781 89.69999694824219 -6.879000186920166 0 -1
74.69999694824219 74 13.215999603271484 1 -1
78.4000015258789 84.80000305175781 -10.449999809265137 0 -1
74.4000015258789 73 21.351999282836914 1 -1
71.30000305175781 76.19999694824219 -0.33000001311302185 1 -1
77.9000015258789 82.5999984741211 -10.79699993133545 0 -1
76 74 13.138999938964844 1 -1
76.5 72.9000015258789 14.17199993133545 1 -1
74.19999694824219 82.9000015258789 -10.567000389099121 0 -1
77.4000015258789 88.69999694824219 -9.770999908447266 0 -1
72.5999984741211 78.0999984741211 -8.696999549865723 0 -1
74.5999984741211 81.19999694824219 4.188000202178955 1 -1
79.5999984741211 77.0999984741211 -9.633999824523926 0 -1
78.80000305175781 88.5 -8.402000427246094 0 -1
80 78.30000305175781 -9.861000061035156 0 -1
71.69999694824219 80.9000015258789 -9.949000358581543 0 -1
77.4000015258789 75.4000015258789 18.56800079345703 1 -1
79.5 76.19999694824219 19.033000946044922 1 -1
71.4000015258789 79.0999984741211 -9.157999992370605 0 -1
76.69999694824219 75.69999694824219 19.413000106811523 1 -1
74.4000015258789 80.4000015258789 3.6110000610351562 1 -1
78.30000305175781 77.19999694824219 18.200000762939453 1 -1
72.5 75.19999694824219 20.20199966430664 1 -1
72.19999694824219 72.5999984741211 14.137999534606934 1 -1
77.5 80.30000305175781 -10.737000465393066 0 -1
73.19999694824219 88.4000015258789 -9.963000297546387 0 -1
73.0999984741211 89.0999984741211 -10.38599967956543 0 -1
73.9000015258789 79.30000305175781 15.0600004196167 1 -1
72.30000305175781 72.9000015258789 11.859999656677246 1 -1
74.5999984741211 87.69999694824219 -10.968999862670898 0 -1
79.80000305175781 77.80000305175781 -9.461000442504883 0 -1
71.5999984741211 74.0999984741211 13.220999717712402 1 -1
78.0999984741211 77 18.881000518798828 1 -1
72.69999694824219 86.19999694824219 -9.699000358581543 1 -1
76.5999984741211 89.5999984741211 -8.57800006866455 0 -1
78.5 77.4000015258789 18.409000396728516 1 -1
75.9000015258789 76.80000305175781 17.927000045776367 1 -1
72.80000305175781 74.69999694824219 20.20599937438965 1 -1
73.30000305175781 76.5999984741211 -8.982999801635742 0 -1
76.30000305175781 78 17.906999588012695 1 -1
77.0999984741211 90 -9.880000114440918 0 -1
77.4000015258789 88.5999984741211 -9.824000358581543 0 -1
73.80000305175781 79.19999694824219 -9.182000160217285 0 -1
78.80000305175781 88.4000015258789 -8.20300006866455 0 -1
75 74.80000305175781 13.234999656677246 1 -1
77.4000015258789 75.5 18.93899917602539 1 -1
78.4000015258789 84.9000015258789 -10.387999534606934 0 -1
76.80000305175781 73.0999984741211 14.12399959564209 1 -1
75.5999984741211 83.69999694824219 -10.779000282287598 0 -1
77.5999984741211 77.80000305175781 18.349000930786133 1 -1
74.4000015258789 80.5 4.151000022888184 1 -1
71.0999984741211 74.5 13.25100040435791 1 -1
79.80000305175781 87 -8.803999900817871 0 -1
74.4000015258789 73.19999694824219 21.242000579833984 1 -1
75.80000305175781 78 -9.887999534606934 0 -1
73.69999694824219 73.5 20.285999298095703 1 -1
74 88.9000015258789 -10.53600025177002 0 -1
77.5999984741211 71.5 14.145999908447266 1 -1
77.69999694824219 74.5999984741211 18.36199951171875 1 -1
74.30000305175781 72.30000305175781 21.645000457763672 1 -1
72.69999694824219 78.69999694824219 3.2939999103546143 1 -1
73.5999984741211 89.5 -8.866999626159668 0 -1
78 73.4000015258789 14.11400032043457 1 -1
71.4000015258789 72.5999984741211 14.1850004196167 1 -1
78.30000305175781 77.30000305175781 18.007999420166016 1 -1
77.80000305175781 76.80000305175781 19.209999084472656 1 -1
73.5 82.30000305175781 -10.644000053405762 0 -1
74.9000015258789 73.9000015258789 13.182999610900879 1 -1
71.69999694824219 72.5999984741211 14.210000038146973 1 -1
73.30000305175781 76.5 -8.932000160217285 0 -1
77.69999694824219 90 -8.24899959564209 0 -1
79.5 85.5999984741211 -9.725000381469727 0 -1
79.5 78.4000015258789 -9.526000022888184 0 -1
74.5 87 -9.984999656677246 0 -1
71.80000305175781 74.80000305175781 13.168000221252441 1 -1
76.4000015258789 79.30000305175781 -10.836999893188477 0 -1
75.4000015258789 73.30000305175781 14.11299991607666 1 -1
75.30000305175781 77.4000015258789 18.143999099731445 1 -1
73.9000015258789 79.4000015258789 15.13700008392334 1 -1
75.9000015258789 76.9000015258789 17.94099998474121 1 -1
76 74.19999694824219 13.265000343322754 1 -1
76.5 80.30000305175781 -9.489999771118164 0 -1
71.69999694824219 82 7.334000110626221 1 -1
79.4000015258789 88.69999694824219 -7.614999771118164 0 -1
78.30000305175781 86.30000305175781 -9.947999954223633 0 -1
75.80000305175781 77.0999984741211 17.895000457763672 1 -1
78 79.5999984741211 -9.944000244140625 0 -1
74.19999694824219 74.5 13.253999710083008 1 -1
73.5999984741211 89.19999694824219 -9.722999572753906 0 -1
72.0999984741211 74.19999694824219 20.43199920654297 1 -1
75.5999984741211 83.5999984741211 -10.74899959564209 0 -1
73.9000015258789 89.69999694824219 -8.845000267028809 0 -1
77.5999984741211 77.69999694824219 18.093000411987305 1 -1
72.5999984741211 85.30000305175781 -9.998000144958496 1 -1
73.69999694824219 86.80000305175781 -9.347999572753906 0 -1
74 73.5999984741211 21.21299934387207 1 -1
72.69999694824219 78.5999984741211 3.3239998817443848 1 -1
73.19999694824219 88.19999694824219 -9.95300006866455 0 -1
74.0999984741211 88 -10.192000389099121 0 -1
72.69999694824219 77 -8.585000038146973 0 -1
75.5999984741211 73.4000015258789 13.362000465393066 1 -1
76.9000015258789 87.19999694824219 1.184000015258789 1 -1
74.4000015258789 80.30000305175781 3.621000051498413 1 -1
71.4000015258789 71.80000305175781 14.185999870300293 1 -1
71.9000015258789 84.9000015258789 -10.847999572753906 0 -1
75.0999984741211 89.69999694824219 -8.248000144958496 0 -1
74.30000305175781 79.30000305175781 15.890999794006348 1 -1
71.0999984741211 84.80000305175781 -5.730999946594238 1 -1
71.4000015258789 78.9000015258789 -8.968000411987305 0 -1
71.69999694824219 71.80000305175781 14.197999954223633 1 -1
77 78.30000305175781 -9.920000076293945 0 -1
73.4000015258789 72.19999694824219 14.21500015258789 1 -1
76 84.4000015258789 -10.59000015258789 0 -1
78.0999984741211 76.80000305175781 18.881000518798828 1 -1
79.5999984741211 86.30000305175781 -9.920000076293945 0 -1
74.5999984741211 81.5999984741211 3.4130001068115234 1 -1
74.80000305175781 77.0999984741211 18.399999618530273 1 -1
71.30000305175781 76.0999984741211 -0.3409999907016754 1 -1
72.5 88.5 -9.572999954223633 0 -1
76.30000305175781 78.19999694824219 17.89900016784668 1 -1
72.5999984741211 78.19999694824219 -8.779000282287598 0 -1
79.4000015258789 88.5999984741211 -7.767000198364258 0 -1
74.5 80.80000305175781 4.047999858856201 1 -1
73.9000015258789 72.30000305175781 14.182000160217285 1 -1
73 82.4000015258789 -10.8100004196167 0 -1
78.19999694824219 72.0999984741211 14.109999656677246 1 -1
77.4000015258789 75.30000305175781 18.474000930786133 1 -1
72.9000015258789 79.4000015258789 -9.062000274658203 0 -1
76.5 72.80000305175781 14.164999961853027 1 -1
76.30000305175781 71 14.144000053405762 1 -1
76.0999984741211 71.5999984741211 14.142999649047852 1 -1
76.80000305175781 78.30000305175781 -9.920000076293945 0 -1
73.4000015258789 79.4000015258789 -9.54699993133545 0 -1
74.30000305175781 72.0999984741211 21.1200008392334 1 -1
72.0999984741211 74.30000305175781 19.996000289916992 1 -1
73.9000015258789 89.5999984741211 -8.961000442504883 0 -1
74.4000015258789 73.0999984741211 21.18199920654297 1 -1
76.4000015258789 78.9000015258789 -10.661999702453613 0 -1
77.5999984741211 71.5999984741211 14.133999824523926 1 -1
72.19999694824219 72.69999694824219 14.130999565124512 1 -1
74.69999694824219 84.69999694824219 -10.456000328063965 0 -1
74.5999984741211 87.80000305175781 -10.996000289916992 0 -1
75.4000015258789 73.5999984741211 12.645999908447266 1 -1
74.5 71.5999984741211 21.229000091552734 1 -1
74.19999694824219 74.5999984741211 13.20300006866455 1 -1
74 80.80000305175781 15.616999626159668 1 -1
72.80000305175781 74.30000305175781 20.32900047302246 1 -1
73.19999694824219 88.30000305175781 -9.980999946594238 0 -1
71.5999984741211 74.4000015258789 13.222000122070312 1 -1
77.19999694824219 77.5 18.218000411987305 1 -1
71.69999694824219 81 -9.89799976348877 0 -1
77.5 80.19999694824219 -10.748000144958496 0 -1
75.30000305175781 77.69999694824219 18.006000518798828 1 -1
72.69999694824219 77.5999984741211 -8.664999961853027 0 -1
79.4000015258789 75.30000305175781 18.349000930786133 1 -1
75.0999984741211 89.5999984741211 -8.550999641418457 0 -1
77.80000305175781 77 18.979999542236328 1 -1
77.4000015258789 88.80000305175781 -9.638999938964844 0 -1
73.5 82.0999984741211 -10.460000038146973 0 -1
71.9000015258789 79.80000305175781 -9.348999977111816 0 -1
80 76.4000015258789 18.48900032043457 1 -1
73.9000015258789 72.19999694824219 14.244000434875488 1 -1
78.19999694824219 72 14.119999885559082 1 -1
79 86.4000015258789 -9.638999938964844 0 -1
78.4000015258789 75.69999694824219 18.31100082397461 1 -1
72.19999694824219 71.69999694824219 14.138999938964844 1 -1
73.0999984741211 89.5 -9.425000190734863 0 -1
79.80000305175781 77.69999694824219 -9.48799991607666 0 -1
71.19999694824219 81.19999694824219 -9.942000389099121 0 -1
78.30000305175781 77.0999984741211 18.39299964904785 1 -1
75.30000305175781 77.80000305175781 17.799999237060547 1 -1
74.9000015258789 74.5 13.182999610900879 1 -1
75.5999984741211 83.80000305175781 -10.769000053405762 0 -1
77.0999984741211 89.69999694824219 -9.847000122070312 0 -1
71.0999984741211 74.5999984741211 13.190999984741211 1 -1
76.9000015258789 81.0999984741211 -10.442000389099121 0 -1
74.4000015258789 88.5 -10.456000328063965 0 -1
71.5999984741211 82.5999984741211 -10.75 0 -1
75.80000305175781 78.0999984741211 17.631000518798828 1 -1
72 74.19999694824219 -6.974999904632568 0 -1
74.4000015258789 73.30000305175781 21.18199920654297 1 -1
74 89 -10.581000328063965 0 -1
74.69999694824219 74.4000015258789 13.189000129699707 1 -1
77.69999694824219 74.69999694824219 18.336999893188477 1 -1
71.69999694824219 81.80000305175781 7.334000110626221 1 -1
73.5 73.9000015258789 20.239999771118164 1 -1
77.30000305175781 76.0999984741211 18.261999130249023 1 -1
72.5999984741211 78.5 3.2639999389648438 1 -1
79.0999984741211 87.5999984741211 -9.579999923706055 0 -1
78.30000305175781 86.5 -9.947999954223633 0 -1
77 78.0999984741211 18.136999130249023 1 -1
77.80000305175781 86.0999984741211 -9.593000411987305 0 -1
78 79.5 -9.954000473022461 0 -1
75.19999694824219 82.5 -10.54699993133545 0 -1
72.5 88.69999694824219 -10.11400032043457 0 -1
74.19999694824219 82.80000305175781 -10.564000129699707 0 -1
73.69999694824219 86.9000015258789 -9.491999626159668 0 -1
76.80000305175781 73.19999694824219 14.166999816894531 1 -1
71.4000015258789 71.69999694824219 14.190999984741211 1 -1
75.80000305175781 77 17.884000778198242 1 -1
79.69999694824219 84.19999694824219 -10.881999969482422 0 -1
74.5999984741211 87.30000305175781 -9.994999885559082 0 -1
75 75.69999694824219 -8.623000144958496 0 -1
78.4000015258789 75.5999984741211 18.28499984741211 1 -1
73.19999694824219 88.0999984741211 -9.885000228881836 0 -1
77.69999694824219 89.9000015258789 -8.486000061035156 0 -1
72.5 75.30000305175781 19.97100067138672 1 -1
71.5 77.4000015258789 -0.9350000023841858 1 -1
74.5 86.0999984741211 -10.536999702453613 0 -1
76 73.80000305175781 13.138999938964844 1 -1
71.0999984741211 84.19999694824219 -10.906999588012695 0 -1
76.5 79.9000015258789 -9.583999633789062 0 -1
76.5999984741211 90 -7.875 0 -1
74.19999694824219 82.69999694824219 -10.567000389099121 0 -1
79.30000305175781 89.80000305175781 -6.994999885559082 0 -1
74 73.69999694824219 14.222000122070312 1 -1
75.9000015258789 77.19999694824219 17.892000198364258 1 -1
77 78.19999694824219 -9.960000038146973 0 -1
73.4000015258789 72.30000305175781 14.211000442504883 1 -1
77.0999984741211 89.5999984741211 -9.604999542236328 0 -1
78.0999984741211 76.9000015258789 19.097999572753906 1 -1
71.80000305175781 75.69999694824219 18.20199966430664 1 -1
80 79.4000015258789 -10.477999687194824 0 -1
72 74.30000305175781 -7.090000152587891 0 -1
78.4000015258789 84.5 -10.727999687194824 0 -1
71.19999694824219 81.5999984741211 -10.383999824523926 0 -1
73.69999694824219 73.5999984741211 20.270999908447266 1 -1
71.69999694824219 82.9000015258789 -10.857999801635742 0 -1
79.69999694824219 84.0999984741211 -10.907999992370605 0 -1
78.30000305175781 86.4000015258789 -9.904000282287598 0 -1
76.5 73.0999984741211 14.163999557495117 1 -1
73.5 74.0999984741211 20.584999084472656 1 -1
73.4000015258789 79.5999984741211 -9.656000137329102 0 -1
76.30000305175781 78.0999984741211 17.902999877929688 1 -1
76.80000305175781 78.19999694824219 18.091999053955078 1 -1
78.80000305175781 88.30000305175781 -8.54800033569336 0 -1
73.5999984741211 89.0999984741211 -10.532999992370605 0 -1
71.69999694824219 71.69999694824219 14.178999900817871 1 -1
75.19999694824219 74.30000305175781 13.16100025177002 1 -1
77.30000305175781 76.19999694824219 18.273000717163086 1 -1
72.69999694824219 86.80000305175781 -9.765000343322754 0 -1
73.4000015258789 72.5999984741211 14.256999969482422 1 -1
76.9000015258789 80.9000015258789 -10.38599967956543 0 -1
73.80000305175781 79.30000305175781 15.13700008392334 1 -1
71.4000015258789 79.80000305175781 -9.282999992370605 0 -1
71.30000305175781 76.5 -0.906000018119812 1 -1
73 82.30000305175781 -10.729000091552734 0 -1
75.4000015258789 73.69999694824219 12.829000473022461 1 -1
79.30000305175781 89.9000015258789 -6.900000095367432 0 -1
73.9000015258789 89.5 -8.944000244140625 0 -1
75.9000015258789 77.30000305175781 17.895999908447266 1 -1
79.5999984741211 87.69999694824219 -8.963000297546387 0 -1
78.5 77.80000305175781 -9.723999977111816 0 -1
76.5 73.19999694824219 14.154000282287598 1 -1
76.0999984741211 71.19999694824219 14.163999557495117 1 -1
75.30000305175781 77.5999984741211 18.054000854492188 1 -1
74 80.69999694824219 15.553000450134277 1 -1
78 73.30000305175781 14.116000175476074 1 -1
71 83.9000015258789 -10.560999870300293 0 -1
72.5999984741211 85.69999694824219 -9.944000244140625 1 -1
71.5999984741211 74.30000305175781 13.220999717712402 1 -1
71.9000015258789 84 -10.95199966430664 0 -1
78.9000015258789 89.4000015258789 -7.605999946594238 0 -1
74.4000015258789 88.69999694824219 -10.706000328063965 0 -1
71.80000305175781 75.5999984741211 18.283000946044922 1 -1
73.30000305175781 76.4000015258789 -8.979999542236328 0 -1
77.5 80.0999984741211 -10.737000465393066 0 -1
73.80000305175781 79.4000015258789 15.0600004196167 1 -1
78.80000305175781 88.19999694824219 -8.77400016784668 0 -1
78.4000015258789 84.5999984741211 -10.696000099182129 0 -1
80 79.5999984741211 -10.477999687194824 0 -1
72.0999984741211 74.4000015258789 20.43199920654297 1 -1
77.4000015258789 88.9000015258789 -9.685999870300293 0 -1
79.4000015258789 89.5 -7.302000045776367 0 -1
73.9000015258789 79.5 15.0600004196167 1 -1
77.5999984741211 77.5999984741211 18.20599937438965 1 -1
72.69999694824219 86.9000015258789 -9.432999610900879 0 -1
74.0999984741211 87.9000015258789 -10.154000282287598 0 -1
78.5 77.69999694824219 -9.673999786376953 0 -1
71.5999984741211 82.30000305175781 -10.654999732971191 0 -1
75.80000305175781 78.19999694824219 17.62299919128418 1 -1
73 82.19999694824219 -10.8100004196167 0 -1
78.0999984741211 77.19999694824219 18.41200065612793 1 -1
79.5 84.4000015258789 -10.848999977111816 0 -1
74.5 80.69999694824219 4.306000232696533 1 -1
78 79.69999694824219 -10.442999839782715 0 -1
79 86.5 -9.982999801635742 0 -1
74.80000305175781 77.5 18.812999725341797 1 -1
73.5999984741211 89.30000305175781 -9.47700023651123 0 -1
77.9000015258789 82.5 -10.61299991607666 0 -1
73.0999984741211 89.4000015258789 -10.550000190734863 0 -1
77.0999984741211 89.80000305175781 -9.833999633789062 0 -1
77.80000305175781 86.4000015258789 -9.170000076293945 0 -1
74.5999984741211 81.5 4.3979997634887695 1 -1
73.30000305175781 76.30000305175781 -8.920999526977539 0 -1
71.4000015258789 71.9000015258789 14.190999984741211 1 -1
74.0999984741211 87.19999694824219 -9.829999923706055 0 -1
74.30000305175781 79.4000015258789 15.932999610900879 1 -1
72.30000305175781 73.5 19.344999313354492 1 -1
72.19999694824219 71.80000305175781 14.166999816894531 1 -1
78.19999694824219 72.4000015258789 14.142999649047852 1 -1
71.69999694824219 81.9000015258789 7.285999774932861 1 -1
72.5 75.5 20.64900016784668 1 -1
71.0999984741211 74.69999694824219 13.199000358581543 1 -1
79.5999984741211 87.80000305175781 -8.982000350952148 0 -1
71.69999694824219 82.69999694824219 -10.857999801635742 0 -1
71.5 77.19999694824219 -0.9350000023841858 1 -1
74.4000015258789 88.5999984741211 -10.564000129699707 0 -1
72.80000305175781 74.4000015258789 20.1299991607666 1 -1
75.9000015258789 77.0999984741211 17.9060001373291 1 -1
76.30000305175781 78.30000305175781 17.9060001373291 1 -1
76.5 80.0999984741211 -9.489999771118164 0 -1
72.30000305175781 73.69999694824219 19.344999313354492 1 -1
74.9000015258789 74.5999984741211 13.168000221252441 1 -1
71.69999694824219 71.9000015258789 14.190999984741211 1 -1
78.30000305175781 77.5 18.426000595092773 1 -1
77 78 18.14900016784668 1 -1
75.80000305175781 76.9000015258789 17.895000457763672 1 -1
76.5999984741211 89.9000015258789 -7.993000030517578 0 -1
75.19999694824219 82.4000015258789 -10.539999961853027 0 -1
75.0999984741211 89.5 -8.776000022888184 0 -1
74.69999694824219 84.30000305175781 -10.623000144958496 0 -1
74.5999984741211 87.4000015258789 -9.970999717712402 0 -1
72.9000015258789 79.5 -9.454000473022461 0 -1
71.9000015258789 78.9000015258789 17.187999725341797 1 -1
75.4000015258789 73.5 14.17199993133545 1 -1
74.30000305175781 72 21.118000030517578 1 -1
73.9000015258789 79.5999984741211 14.98799991607666 1 -1
72.5 88.5999984741211 -9.949999809265137 0 -1
72.9000015258789 79.5999984741211 -9.395000457763672 0 -1
78.30000305175781 86.0999984741211 -9.762999534606934 0 -1
73.4000015258789 79.5 -9.701000213623047 0 -1
76.0999984741211 71.4000015258789 14.142999649047852 1 -1
74.19999694824219 74.69999694824219 13.201000213623047 1 -1
76.4000015258789 79 -10.602999687194824 0 -1
77.69999694824219 89.80000305175781 -8.605999946594238 0 -1
72.5 88.80000305175781 -10.168000221252441 0 -1
74 88.0999984741211 -10.175999641418457 0 -1
77.19999694824219 77.4000015258789 18.091999053955078 1 -1
71.9000015258789 84.19999694824219 -10.987000465393066 0 -1
71.5 77.30000305175781 -0.9629999995231628 1 -1
79 86.30000305175781 -9.605999946594238 0 -1
73.69999694824219 87 -9.347999572753906 0 -1
71.0999984741211 84.0999984741211 -10.869999885559082 0 -1
76 84.30000305175781 -10.62600040435791 0 -1
72.69999694824219 77.69999694824219 -8.645000457763672 0 -1
77.80000305175781 77.5999984741211 18.20599937438965 1 -1
76.80000305175781 72.80000305175781 14.180000305175781 1 -1
73.69999694824219 73.69999694824219 20.285999298095703 1 -1
74.69999694824219 84.4000015258789 -10.498000144958496 0 -1
76.5 73 14.154000282287598 1 -1
73.5 74 20.490999221801758 1 -1
76.5 80 -9.53600025177002 0 -1
76.80000305175781 78.0999984741211 18.136999130249023 1 -1
74.19999694824219 74.30000305175781 13.223999977111816 1 -1
78 73.0999984741211 14.07699966430664 1 -1
71 74.9000015258789 13.173999786376953 1 -1
73.5 82 -10.505999565124512 0 -1
73.4000015258789 72.69999694824219 14.258000373840332 1 -1
78.0999984741211 71.5 14.116999626159668 1 -1
73.9000015258789 72.0999984741211 14.190999984741211 1 -1
71.69999694824219 81.69999694824219 7.285999774932861 1 -1
79.5999984741211 87.5999984741211 -8.982000350952148 0 -1
74 72.80000305175781 21.13599967956543 1 -1
71.30000305175781 76.4000015258789 -0.33000001311302185 1 -1
73.4000015258789 79.19999694824219 -9.42300033569336 0 -1
73.19999694824219 89 -10.376999855041504 0 -1
72.69999694824219 77.80000305175781 -8.704999923706055 0 -1
74.69999694824219 74.30000305175781 13.246000289916992 1 -1
76.4000015258789 79.0999984741211 -10.661999702453613 0 -1
76.9000015258789 81 -10.413999557495117 0 -1
72.5999984741211 78.4000015258789 3.2339999675750732 1 -1
75.5999984741211 73.30000305175781 14.11299991607666 1 -1
71.9000015258789 84.0999984741211 -10.970000267028809 0 -1
79.0999984741211 87.69999694824219 -9.559000015258789 0 -1
71.19999694824219 81.5 -10.3149995803833 0 -1
74.4000015258789 80.19999694824219 16.006999969482422 1 -1
76 83.5999984741211 -10.845000267028809 0 -1
76.0999984741211 71.30000305175781 14.163999557495117 1 -1
74 80.5999984741211 15.616999626159668 1 -1
71.9000015258789 79.0999984741211 17.187999725341797 1 -1
74.5999984741211 81.9000015258789 3.368000030517578 1 -1
77.5 80 -10.595999717712402 0 -1
75.19999694824219 74.4000015258789 13.175999641418457 1 -1
74.69999694824219 74.69999694824219 13.17199993133545 1 -1
78.4000015258789 75 19.222999572753906 1 -1
71.5999984741211 82.19999694824219 -10.70300006866455 0 -1
78.0999984741211 77.30000305175781 18.391000747680664 1 -1
77.4000015258789 75.19999694824219 18.285999298095703 1 -1
71.0999984741211 74.30000305175781 13.234999656677246 1 -1
72.80000305175781 74 21.038000106811523 1 -1
71 83.5 -10.100000381469727 0 -1
74.80000305175781 77.4000015258789 18.458999633789062 1 -1
74.30000305175781 79.5999984741211 16.3439998626709 1 -1
71.5999984741211 82.4000015258789 -10.70300006866455 0 -1
73.9000015258789 72 14.218000411987305 1 -1
75.80000305175781 78.30000305175781 17.631000518798828 1 -1
76 73.9000015258789 13.20199966430664 1 -1
75.9000015258789 78 17.64699935913086 1 -1
71 75 13.17199993133545 1 -1
79.5 84.30000305175781 -10.907999992370605 0 -1
72.19999694824219 71.9000015258789 14.163000106811523 1 -1
77.80000305175781 86.5 -9.029000282287598 1 -1
79.0999984741211 87.80000305175781 -9.579999923706055 0 -1
75.19999694824219 82.19999694824219 -10.67199993133545 0 -1
72.30000305175781 73.5999984741211 19.562000274658203 1 -1
73.19999694824219 71.5999984741211 14.218000411987305 1 -1
74.9000015258789 74.69999694824219 13.175999641418457 1 -1
77.80000305175781 86.30000305175781 -9.593000411987305 0 -1
72.5 75.4000015258789 20.20199966430664 1 -1
79.30000305175781 90 -6.76800012588501 0 -1
71.5 77.0999984741211 -0.9629999995231628 1 -1
80 79.5 -10.418000221252441 0 -1
74.5 86.19999694824219 -10.517000198364258 0 -1
77.9000015258789 82.9000015258789 -10.89900016784668 0 -1
73.0999984741211 89.80000305175781 -8.75100040435791 0 -1
73.4000015258789 72.5 14.255999565124512 1 -1
71.4000015258789 72 14.185999870300293 1 -1
74.4000015258789 88.80000305175781 -10.753000259399414 0 -1
77.5999984741211 77.5 18.319000244140625 1 -1
75.80000305175781 76.80000305175781 17.865999221801758 1 -1
71.9000015258789 79 17.226999282836914 1 -1
71.69999694824219 82.80000305175781 -10.895000457763672 0 -1
79.69999694824219 84 -10.251999855041504 0 -1
73.5 74.19999694824219 20.490999221801758 1 -1
74.5999984741211 87.5 -10.944999694824219 0 -1
77.0999984741211 88.4000015258789 -9.986000061035156 0 -1
77.69999694824219 89.69999694824219 -8.486000061035156 0 -1
78.4000015258789 74.9000015258789 18.569000244140625 1 -1
74.19999694824219 82.0999984741211 -10.697999954223633 0 -1
76.80000305175781 81.5999984741211 -10.807000160217285 0 -1
71.9000015258789 84.30000305175781 -10.901000022888184 0 -1
76.80000305175781 72.9000015258789 14.199000358581543 1 -1
75.5999984741211 83.9000015258789 -10.779000282287598 0 -1
73.9000015258789 89.4000015258789 -9.472000122070312 0 -1
72.5999984741211 85.5999984741211 -9.958999633789062 1 -1
77.69999694824219 73.9000015258789 13.128999710083008 1 -1
74 88.19999694824219 -10.281999588012695 0 -1
78.9000015258789 89.5 -7.48199987411499 0 -1
75.9000015258789 86.69999694824219 -10.940999984741211 0 -1
74.4000015258789 73.4000015258789 21.242000579833984 1 -1
71.0999984741211 84 -10.758999824523926 0 -1
71.4000015258789 79.69999694824219 -9.3100004196167 0 -1
75.19999694824219 74.5999984741211 13.175999641418457 1 -1
75.19999694824219 82.30000305175781 -10.54699993133545 0 -1
78.80000305175781 88.0999984741211 -8.99899959564209 0 -1
78 73.19999694824219 14.118000030517578 1 -1
77.5999984741211 77.4000015258789 18.20599937438965 1 -1
76.0999984741211 71 14.164999961853027 1 -1
78.0999984741211 77.0999984741211 18.391000747680664 1 -1
79.4000015258789 89.4000015258789 -7.380000114440918 0 -1
76.9000015258789 78.80000305175781 -10.458000183105469 0 -1
75.5999984741211 73.0999984741211 14.152000427246094 1 -1
74.4000015258789 80 16.145000457763672 1 -1
76.4000015258789 78.5999984741211 -10.27299976348877 0 -1
72.69999694824219 87 -9.321999549865723 0 -1
74.30000305175781 71.9000015258789 21.059999465942383 1 -1
73.80000305175781 79.5 14.98799991607666 1 -1
78.4000015258789 84.69999694824219 -10.512999534606934 0 -1
72.69999694824219 78.30000305175781 3.2339999675750732 1 -1
80 79.69999694824219 -10.597000122070312 0 -1
74.19999694824219 82 -10.767000198364258 0 -1
74.0999984741211 87.0999984741211 -9.734999656677246 0 -1
71 74.80000305175781 13.175999641418457 1 -1
74.5 80.5999984741211 4.151000022888184 1 -1
73.69999694824219 86.0999984741211 -10.489999771118164 0 -1
75 75.5999984741211 -8.675999641418457 0 -1
71.5999984741211 74.69999694824219 13.17300033569336 1 -1
76.5999984741211 86.19999694824219 -10.656999588012695 0 -1
75.80000305175781 77.80000305175781 17.663000106811523 1 -1
78.5 77.5999984741211 -9.723999977111816 0 -1
76.5 73.4000015258789 14.173999786376953 1 -1
78 79.80000305175781 -10.387999534606934 0 -1
74.30000305175781 79.5 -9.619999885559082 0 -1
71.80000305175781 75.5 19.386999130249023 1 -1
71.69999694824219 72 14.170999526977539 1 -1
72.5999984741211 85.9000015258789 -9.781999588012695 1 -1
74 72.9000015258789 21.16200065612793 1 -1
78.9000015258789 89.19999694824219 -7.906000137329102 0 -1
73.30000305175781 76.19999694824219 -8.876999855041504 0 -1
73.80000305175781 79.5999984741211 14.954999923706055 1 -1
72.0999984741211 74.5999984741211 13.072999954223633 1 -1
73.9000015258789 89.30000305175781 -9.67300033569336 0 -1
74.80000305175781 77.80000305175781 17.507999420166016 1 -1
73 82.5999984741211 -10.729999542236328 0 -1
71.69999694824219 82.5999984741211 -10.746000289916992 0 -1
75.5999984741211 73.19999694824219 14.14900016784668 1 -1
78.4000015258789 85.30000305175781 -10.78499984741211 0 -1
72.9000015258789 79.19999694824219 -9.062000274658203 0 -1
73.69999694824219 72.80000305175781 14.232000350952148 1 -1
75.19999694824219 74.5 13.163999557495117 1 -1
74.4000015258789 80.0999984741211 16.18600082397461 1 -1
76 83.69999694824219 -10.82699966430664 0 -1
74 80.5 15.553000450134277 1 -1
71 83.69999694824219 -10.663999557495117 0 -1
73.5 82.9000015258789 -10.51099967956543 0 -1
75.5 75.69999694824219 17.80500030517578 1 -1
72.5 75.5999984741211 20.450000762939453 1 -1
74.5999984741211 81.80000305175781 3.3550000190734863 1 -1
75.0999984741211 89.4000015258789 -8.550999641418457 0 -1
73.5999984741211 89.9000015258789 -8.595000267028809 0 -1
71.30000305175781 76.30000305175781 -0.33399999141693115 1 -1
77.9000015258789 82.69999694824219 -10.76200008392334 0 -1
76.4000015258789 78.69999694824219 -10.361000061035156 0 -1
73.30000305175781 76.0999984741211 -8.920999526977539 0 -1
78.19999694824219 72.30000305175781 14.137999534606934 1 -1
79.4000015258789 89.30000305175781 -7.5229997634887695 0 -1
73.9000015258789 79.69999694824219 14.954999923706055 1 -1
74.19999694824219 74.4000015258789 13.23900032043457 1 -1
72.30000305175781 73.30000305175781 19.5939998626709 1 -1
74.69999694824219 84 -10.843000411987305 0 -1
72.80000305175781 74.0999984741211 20.43899917602539 1 -1
72.5 88.9000015258789 -10.11400032043457 0 -1
76.30000305175781 79.4000015258789 -9.79800033569336 0 -1
75.4000015258789 72.9000015258789 14.13599967956543 1 -1
75.30000305175781 77 18.13800048828125 1 -1
79 86.19999694824219 -9.706000328063965 0 -1
73.9000015258789 71.9000015258789 14.21399974822998 1 -1
75 75.4000015258789 -8.62600040435791 0 -1
77.80000305175781 77.69999694824219 18.093000411987305 1 -1
79.5 84.19999694824219 -10.848999977111816 0 -1
75.19999694824219 82.0999984741211 -10.529000282287598 0 -1
71.80000305175781 75.4000015258789 19.12299919128418 1 -1
74.5999984741211 87.0999984741211 -9.984999656677246 0 -1
77.4000015258789 89 -9.638999938964844 0 -1
78.0999984741211 71.5999984741211 14.128000259399414 1 -1
76.5 81.69999694824219 -10.859000205993652 0 -1
71.9000015258789 79.19999694824219 16.465999603271484 1 -1
74.30000305175781 71.69999694824219 14.199000358581543 1 -1
77.4000015258789 75.0999984741211 18.285999298095703 1 -1
72.19999694824219 72 14.180000305175781 1 -1
71 83.5999984741211 -10.71399974822998 0 -1
76.30000305175781 71.5999984741211 20.732999801635742 1 -1
76.80000305175781 73.5 11.873000144958496 1 -1
77.9000015258789 82.80000305175781 -10.864999771118164 0 -1
71.4000015258789 79.5 -9.199999809265137 0 -1
73.0999984741211 89.69999694824219 -8.831999778747559 0 -1
74.4000015258789 88.9000015258789 -10.706000328063965 0 -1
78 73 14.08899974822998 1 -1
73 82.5 -10.762999534606934 0 -1
75.9000015258789 78.5999984741211 17.472999572753906 1 -1
77.5 79.9000015258789 -10.642999649047852 0 -1
72.5999984741211 78.80000305175781 -8.970000267028809 0 -1
75.0999984741211 89.30000305175781 -8.776000022888184 0 -1
73.5 82.69999694824219 -10.640999794006348 0 -1
74.9000015258789 74.30000305175781 13.192000389099121 1 -1
77.69999694824219 89.5999984741211 -8.845000267028809 0 -1
71.0999984741211 74.4000015258789 13.243000030517578 1 -1
78.19999694824219 72.19999694824219 14.102999687194824 1 -1
74.5 80.4000015258789 4.151000022888184 1 -1
78.69999694824219 77.69999694824219 -9.673999786376953 0 -1
71.5999984741211 74.5 9.083000183105469 1 -1
71.69999694824219 81.5999984741211 6.755000114440918 1 -1
75.5999984741211 79.9000015258789 -9.373000144958496 0 -1
75 75.5 -8.623000144958496 0 -1
73.4000015258789 79.30000305175781 -9.446999549865723 0 -1
77.5 81.9000015258789 -10.52299976348877 0 -1
75.19999694824219 74.69999694824219 13.187999725341797 1 -1
76.9000015258789 78.5999984741211 -10.300999641418457 0 -1
74 88.30000305175781 -10.317000389099121 0 -1
78.30000305175781 77.4000015258789 18.409000396728516 1 -1
74.4000015258789 73.5 20.926000595092773 1 -1
75.80000305175781 77.69999694824219 17.79599952697754 1 -1
74.69999694824219 74.5999984741211 13.048999786376953 1 -1
75.80000305175781 85.5999984741211 -10.911999702453613 0 -1
72 74.5 -8.373000144958496 0 -1
77.80000305175781 87.69999694824219 -5.99399995803833 1 -1
72.69999694824219 77.4000015258789 -8.614999771118164 0 -1
75.5999984741211 73 14.154999732971191 1 -1
76.30000305175781 79.5999984741211 -9.79800033569336 0 -1
76.80000305175781 81.5 -10.765000343322754 0 -1
78.9000015258789 89.0999984741211 -7.795000076293945 0 -1
78.80000305175781 90 -7.3420000076293945 0 -1
74.30000305175781 79.69999694824219 16.445999145507812 1 -1
71.19999694824219 81.9000015258789 -10.522000312805176 0 -1
78.30000305175781 86.19999694824219 -10.277000427246094 0 -1
77 77.9000015258789 18.208999633789062 1 -1
77.69999694824219 74 13.130999565124512 1 -1
72.5999984741211 78.5999984741211 3.2939999103546143 1 -1
79.0999984741211 87.9000015258789 -9.517000198364258 0 -1
72.69999694824219 86.5999984741211 -9.765000343322754 0 -1
77.4000015258789 74.9000015258789 18.246999740600586 1 -1
79.69999694824219 84.4000015258789 -10.777000427246094 0 -1
73.69999694824219 86.19999694824219 -10.467000007629395 0 -1
76.19999694824219 88.0999984741211 -10.531999588012695 0 -1
74.80000305175781 77.69999694824219 17.554000854492188 1 -1
76 83.5 -10.984999656677246 0 -1
76.5999984741211 86.0999984741211 -10.880999565124512 0 -1
74.5999984741211 81.69999694824219 3.4189999103546143 1 -1
74 73 21.007999420166016 1 -1
74.5 86.30000305175781 -10.532999992370605 0 -1
73.69999694824219 72.9000015258789 21.05299949645996 1 -1
71.4000015258789 72.0999984741211 14.199999809265137 1 -1
74.69999694824219 74.5 13.20300006866455 1 -1
71.5999984741211 82 -10.522000312805176 0 -1
75.5 75.5999984741211 17.742000579833984 1 -1
72.69999694824219 77.5 -8.64799976348877 0 -1
79.5999984741211 88 -8.348999977111816 0 -1
77.5999984741211 78.30000305175781 -9.902000427246094 0 -1
76.5 81.9000015258789 -10.869000434875488 0 -1
72 74.5999984741211 13.069000244140625 1 -1
71.19999694824219 81.80000305175781 -10.47599983215332 0 -1
74.4000015258789 79.9000015258789 16.240999221801758 1 -1
72.5999984741211 86 -9.647000312805176 1 -1
79.69999694824219 84.30000305175781 -10.829999923706055 0 -1
71.0999984741211 84.4000015258789 -10.906999588012695 0 -1
78.4000015258789 74.80000305175781 18.51099967956543 1 -1
72.69999694824219 86.69999694824219 -9.654999732971191 0 -1
73.19999694824219 88.9000015258789 -10.321999549865723 0 -1
77.4000015258789 89.19999694824219 -8.491999626159668 0 -1
77.80000305175781 77.4000015258789 18.354000091552734 1 -1
71 83.30000305175781 -10.100000381469727 0 -1
72.80000305175781 74.19999694824219 20.1299991607666 1 -1
71.30000305175781 76.69999694824219 -1.090999960899353 1 -1
71.4000015258789 79.5999984741211 -9.282999992370605 0 -1
71.9000015258789 79.30000305175781 -8.98799991607666 0 -1
77.69999694824219 88.5 -6.4730000495910645 1 -1
74.19999694824219 82.4000015258789 -10.559000015258789 0 -1
79.30000305175781 86.0999984741211 -9.904000282287598 0 -1
79.5 84.0999984741211 -10.937999725341797 0 -1
72.19999694824219 72.0999984741211 14.12399959564209 1 -1
78.19999694824219 72.69999694824219 14.14799976348877 1 -1
77.4000015258789 89.0999984741211 -8.652000427246094 0 -1
75 75.30000305175781 -8.515999794006348 0 -1
75.5999984741211 80.0999984741211 -9.491999626159668 0 -1
77.4000015258789 75 18.285999298095703 1 -1
74.30000305175781 71.80000305175781 20.916000366210938 1 -1
74.5 86.5 -10.480999946594238 0 -1
73.0999984741211 89.5999984741211 -9.9399995803833 0 -1
76.5 81.80000305175781 -10.89900016784668 0 -1
73.5999984741211 90 -7.830999851226807 0 -1
80 79.80000305175781 -10.656999588012695 0 -1
78.69999694824219 77.80000305175781 -9.723999977111816 0 -1
71 83.19999694824219 -10.166999816894531 0 -1
76.19999694824219 88.30000305175781 -10.718000411987305 0 -1
72.5999984741211 85.80000305175781 -9.847000122070312 1 -1
71.5999984741211 74.5999984741211 13.178999900817871 1 -1
71.69999694824219 82.5 -10.784000396728516 0 -1
78.9000015258789 89.30000305175781 -7.795000076293945 0 -1
77 77.69999694824219 18.2450008392334 1 -1
78 79.9000015258789 -10.442999839782715 0 -1
76.9000015258789 78.69999694824219 -10.406000137329102 0 -1
74.5 80.5 4.306000232696533 1 -1
73.19999694824219 71.5 14.22599983215332 1 -1
74.9000015258789 74.4000015258789 13.180999755859375 1 -1
73 82.9000015258789 -10.82800006866455 0 -1
71.69999694824219 72.0999984741211 14.182000160217285 1 -1
77.80000305175781 87.80000305175781 -5.886000156402588 1 -1
74.0999984741211 78.19999694824219 16.389999389648438 1 -1
72.9000015258789 79.30000305175781 -9.055000305175781 0 -1
75.5999984741211 80 -9.491999626159668 0 -1
76.80000305175781 73.5999984741211 11.871999740600586 1 -1
77.5 81.80000305175781 -10.510000228881836 0 -1
73.80000305175781 79.69999694824219 -9.697999954223633 0 -1
78 80.0999984741211 -10.605999946594238 0 -1
73.9000015258789 89.19999694824219 -9.954999923706055 0 -1
72.0999984741211 74.69999694824219 13.032999992370605 1 -1
74 88.4000015258789 -10.281999588012695 0 -1
78.19999694824219 72.5999984741211 14.142999649047852 1 -1
72.5 75.69999694824219 20.64900016784668 1 -1
74.69999694824219 77 17.91200065612793 1 -1
71.5 77 -0.9909999966621399 1 -1
78.4000015258789 85.4000015258789 -10.847000122070312 0 -1
75.80000305175781 77.5999984741211 17.801000595092773 1 -1
77.0999984741211 88.5 -9.95300006866455 0 -1
79.30000305175781 86.19999694824219 -9.460000038146973 0 -1
73.5 82.80000305175781 -10.670999526977539 0 -1
75.80000305175781 85.69999694824219 -10.944999694824219 0 -1
74.4000015258789 73.69999694824219 14.23799991607666 1 -1
77 77.80000305175781 18.261999130249023 1 -1
76.5999984741211 86.5 -10.730999946594238 0 -1
77.5999984741211 71 14.154999732971191 1 -1
75 82.5 4.183000087738037 1 -1
79.4000015258789 89.19999694824219 -7.604000091552734 0 -1
72.9000015258789 78.9000015258789 -9.041999816894531 0 -1
76.19999694824219 88.19999694824219 -10.729999542236328 0 -1
71.80000305175781 75.30000305175781 19.386999130249023 1 -1
74.69999694824219 84.0999984741211 -10.623000144958496 0 -1
74.5999984741211 87.19999694824219 -9.970999717712402 0 -1
78.0999984741211 71.19999694824219 14.159000396728516 1 -1
76.4000015258789 78.80000305175781 -10.602999687194824 0 -1
76.30000305175781 79.5 -9.83899974822998 0 -1
71.0999984741211 84.30000305175781 -10.869999885559082 0 -1
73.30000305175781 76 -8.89799976348877 0 -1
77.69999694824219 74.0999984741211 13.144000053405762 1 -1
73.80000305175781 79.80000305175781 -9.743000030517578 0 -1
72.30000305175781 73.4000015258789 19.194000244140625 1 -1
74.80000305175781 77.5999984741211 17.507999420166016 1 -1
73.69999694824219 86.30000305175781 -10.406999588012695 0 -1
75.4000015258789 72.80000305175781 14.173999786376953 1 -1
72.5999984741211 78.69999694824219 3.3239998817443848 1 -1
73.9000015258789 71.80000305175781 14.211000442504883 1 -1
76.80000305175781 81.9000015258789 -10.883999824523926 0 -1
74.0999984741211 87.5 -9.748000144958496 0 -1
77.4000015258789 74.80000305175781 18.274999618530273 1 -1
74.30000305175781 71.5999984741211 14.194999694824219 1 -1
76.30000305175781 71.5 20.52899932861328 1 -1
78.30000305175781 85.80000305175781 -9.982000350952148 0 -1
72.5 89 -10.168000221252441 0 -1
75.5 75.5 17.80500030517578 1 -1
74 73.0999984741211 21.06800079345703 1 -1
79 86.0999984741211 -9.67300033569336 0 -1
73.5999984741211 89.69999694824219 -8.595000267028809 0 -1
71.4000015258789 79.4000015258789 -9.227999687194824 0 -1
75.9000015258789 86.5999984741211 -10.95300006866455 0 -1
77.9000015258789 89.30000305175781 -5.639999866485596 1 -1
73.9000015258789 89.0999984741211 -10.585000038146973 0 -1
