VERSION .7
FIELDS x y z label object
SIZE 4 4 4 4 4
TYPE F F F I I
COUNT 1 1 1 1 1
WIDTH 895
HEIGHT 1
POINTS 895
VIEWPOINT 0 0 0 1 0 0 0
DATA ascii
77.30000305175781 81.0999984741211 -10.08899974822998 0 -1
77.5 85.5 -10.668000221252441 0 -1
77.4000015258789 77.4000015258789 -8.75 0 -1
77.9000015258789 79.5 -9.152999877929688 0 -1
78.80000305175781 77.19999694824219 -8.595999717712402 0 -1
73.80000305175781 83.19999694824219 -10.996000289916992 0 -1
72.5 78.30000305175781 -8.862000465393066 0 -1
71.69999694824219 87.0999984741211 -9.91100025177002 0 -1
74.80000305175781 89.5 -10.626999855041504 0 -1
73.30000305175781 81.5999984741211 -10.72599983215332 0 -1
79.19999694824219 86.5999984741211 -10.475000381469727 0 -1
78.9000015258789 74.0999984741211 17.17799949645996 1 -1
73.19999694824219 72.9000015258789 14.15999984741211 1 -1
76.5999984741211 84.5 -10.079000473022461 0 -1
71.5999984741211 79.19999694824219 16.874000549316406 1 -1
74.19999694824219 80.80000305175781 -10.765000343322754 0 -1
75.4000015258789 87 -10.487000465393066 0 -1
71.5 87.5999984741211 -10.26200008392334 0 -1
71.80000305175781 77.69999694824219 -8.630999565124512 0 -1
73 87.5 -10.795999526977539 0 -1
78.19999694824219 87.30000305175781 -10.600000381469727 0 -1
77.9000015258789 79.5999984741211 -9.217000007629395 0 -1
73.0999984741211 72.0999984741211 14.12600040435791 1 -1
72.5999984741211 75.0999984741211 -8.423999786376953 0 -1
76.0999984741211 88.5999984741211 -9.89799976348877 0 -1
75 87.0999984741211 -10.902000427246094 0 -1
72.80000305175781 81.9000015258789 -10.640999794006348 0 -1
76 89.5 -9.975000381469727 0 -1
71.5999984741211 79.5 16.79800033569336 1 -1
74.80000305175781 71.4000015258789 14.140000343322754 1 -1
73.80000305175781 83.30000305175781 -10.972999572753906 0 -1
71.9000015258789 90 -10.493000030517578 0 -1
75.19999694824219 76.30000305175781 -8.420000076293945 0 -1
71.80000305175781 77.80000305175781 -8.708999633789062 0 -1
77.4000015258789 71.4000015258789 14.11400032043457 1 -1
77.30000305175781 81.19999694824219 -10.133999824523926 0 -1
78.69999694824219 87.30000305175781 -10.593999862670898 0 -1
75.19999694824219 76.4000015258789 -8.425000190734863 0 -1
72.19999694824219 87.0999984741211 -9.817000389099121 0 -1
79.80000305175781 83.9000015258789 -9.776000022888184 0 -1
78.19999694824219 87.4000015258789 -10.592000007629395 0 -1
78.0999984741211 74.80000305175781 21.298999786376953 1 -1
78.9000015258789 78.5 -8.442000389099121 0 -1
76.0999984741211 88.69999694824219 -9.920000076293945 0 -1
78.5999984741211 86.0999984741211 -10.692000389099121 0 -1
79.4000015258789 74.19999694824219 16.49799919128418 1 -1
74 71.5999984741211 14.104000091552734 1 -1
75.5999984741211 86.69999694824219 -10.33899974822998 0 -1
77 83.4000015258789 -9.914999961853027 0 -1
79.5999984741211 75.0999984741211 22.114999771118164 1 -1
79.5999984741211 80.19999694824219 -9.27400016784668 0 -1
73.5999984741211 82 -10.944000244140625 0 -1
75.80000305175781 75 -8.559000015258789 0 -1
74.9000015258789 86.19999694824219 -10.930000305175781 0 -1
71.4000015258789 83 -11.246000289916992 0 -1
79.80000305175781 71.5999984741211 14.074999809265137 1 -1
75.5 77 -8.420999526977539 0 -1
79.19999694824219 72.4000015258789 14.130000114440918 1 -1
77.5999984741211 89 -9.883000373840332 0 -1
77.5999984741211 75.5999984741211 16.988000869750977 1 -1
71.30000305175781 88.4000015258789 -10.645000457763672 0 -1
77.0999984741211 82.5 -10.581999778747559 0 -1
79 81.5 -9.989999771118164 0 -1
76.19999694824219 78.5 -9.586999893188477 0 -1
76.5999984741211 72.69999694824219 14.130999565124512 1 -1
73.0999984741211 84.4000015258789 -10.800000190734863 0 -1
76.69999694824219 80.4000015258789 -9.947999954223633 0 -1
72.30000305175781 86.9000015258789 -9.963000297546387 0 -1
72.4000015258789 89.9000015258789 -10.687999725341797 0 -1
74.9000015258789 71.9000015258789 14.128999710083008 1 -1
72 86.4000015258789 -9.878999710083008 0 -1
78.0999984741211 88.30000305175781 -9.645000457763672 0 -1
78.5 88.69999694824219 -8.67300033569336 0 -1
78 82.5999984741211 -9.875 0 -1
72.9000015258789 76.30000305175781 -8.267999649047852 0 -1
74.30000305175781 89.5 -10.765000343322754 0 -1
73.69999694824219 85.80000305175781 -10.989999771118164 0 -1
77.4000015258789 71.19999694824219 14.119000434875488 1 -1
76.5999984741211 84.9000015258789 -10.265999794006348 0 -1
74.80000305175781 89.4000015258789 -10.814000129699707 0 -1
77.5 85.4000015258789 -9.76200008392334 0 -1
77.9000015258789 79.4000015258789 -9.08899974822998 0 -1
77.5999984741211 88.9000015258789 -9.855999946594238 0 -1
72.9000015258789 76.4000015258789 -8.246999740600586 0 -1
78.4000015258789 81.80000305175781 -10.184000015258789 0 -1
78.0999984741211 75 21.378000259399414 1 -1
77.80000305175781 72.9000015258789 14.111000061035156 1 -1
79.19999694824219 86.69999694824219 -10.427000045776367 0 -1
77.19999694824219 80.5999984741211 -9.91100025177002 0 -1
72.5 78.4000015258789 -8.935999870300293 0 -1
74.69999694824219 80.5999984741211 -10.675000190734863 0 -1
74.30000305175781 89.69999694824219 -10.795000076293945 0 -1
73.19999694824219 85.19999694824219 -10.899999618530273 0 -1
74.80000305175781 71 14.12600040435791 1 -1
79.4000015258789 79.30000305175781 -8.88700008392334 0 -1
72 86.5 -9.760000228881836 0 -1
73.5 89.30000305175781 -10.989999771118164 0 -1
78.5 88.5999984741211 -8.904999732971191 0 -1
72.4000015258789 89.30000305175781 -10.888999938964844 0 -1
78.30000305175781 73 14.121999740600586 1 -1
75.19999694824219 76.19999694824219 -8.404999732971191 0 -1
76.5999984741211 72.19999694824219 14.137999534606934 1 -1
71.9000015258789 89.19999694824219 -10.779999732971191 0 -1
78.69999694824219 87.4000015258789 -10.585000038146973 0 -1
75.5999984741211 86.9000015258789 -10.392999649047852 0 -1
76.19999694824219 78.69999694824219 -9.586999893188477 0 -1
77 83.19999694824219 -9.914999961853027 0 -1
71.9000015258789 89.0999984741211 -10.819000244140625 0 -1
79.19999694824219 72.30000305175781 14.097999572753906 1 -1
71.19999694824219 85.30000305175781 -10.866000175476074 0 -1
78.4000015258789 81.9000015258789 -10.225000381469727 0 -1
72.30000305175781 86.19999694824219 -9.718999862670898 0 -1
73.0999984741211 71.69999694824219 14.138999938964844 1 -1
71.69999694824219 88 -10.46500015258789 0 -1
76.0999984741211 89 -9.97700023651123 0 -1
78.0999984741211 88.0999984741211 -9.779000282287598 0 -1
76.4000015258789 75.9000015258789 -8.977999687194824 0 -1
75.69999694824219 74.0999984741211 11.83899974822998 1 -1
79.69999694824219 80.0999984741211 -9.279000282287598 0 -1
73.30000305175781 81.5 -10.73799991607666 0 -1
78.80000305175781 77.0999984741211 -8.482000350952148 0 -1
74.19999694824219 80.69999694824219 -10.663000106811523 0 -1
74.9000015258789 86.80000305175781 -10.913999557495117 0 -1
72.19999694824219 88 -10.529000282287598 0 -1
72 72 14.121999740600586 1 -1
78 82.80000305175781 -9.819000244140625 0 -1
75.4000015258789 86.5999984741211 -10.550000190734863 0 -1
74 71.5 14.107999801635742 1 -1
73.5 89.0999984741211 -10.989999771118164 0 -1
75.5999984741211 86.80000305175781 -10.381999969482422 0 -1
76.19999694824219 78.5999984741211 -9.633000373840332 0 -1
77.19999694824219 80.4000015258789 -9.91100025177002 0 -1
71.80000305175781 80.80000305175781 16.715999603271484 1 -1
77 83.30000305175781 -9.970999717712402 0 -1
73.19999694824219 85 -10.628000259399414 0 -1
76.69999694824219 80.5 -9.894000053405762 0 -1
78.5999984741211 86.5 -10.878000259399414 0 -1
79.19999694824219 86.80000305175781 -10.41100025177002 0 -1
74.9000015258789 71.80000305175781 14.131999969482422 1 -1
74.80000305175781 89.80000305175781 -9.982999801635742 0 -1
73 87.4000015258789 -10.763999938964844 0 -1
73.0999984741211 84.30000305175781 -10.789999961853027 0 -1
73.80000305175781 83.4000015258789 -10.949999809265137 0 -1
79.5999984741211 81.5999984741211 -9.97700023651123 0 -1
71.19999694824219 85.69999694824219 -9.979000091552734 0 -1
71.30000305175781 88.80000305175781 -10.862000465393066 0 -1
73.69999694824219 85.9000015258789 -10.942999839782715 0 -1
76 89.4000015258789 -9.822999954223633 0 -1
76.5999984741211 84.80000305175781 -10.079999923706055 0 -1
73.5 71 14.109999656677246 1 -1
79 76.5 22.726999282836914 1 -1
77.30000305175781 81.30000305175781 -10.14799976348877 0 -1
77.5 85.30000305175781 -9.77299976348877 0 -1
71.5999984741211 79.4000015258789 16.874000549316406 1 -1
71.4000015258789 83.9000015258789 -11.277999877929688 0 -1
78.69999694824219 87.19999694824219 -10.585000038146973 0 -1
74.5999984741211 75.0999984741211 -8.711000442504883 0 -1
73.19999694824219 85.0999984741211 -10.597000122070312 0 -1
74.80000305175781 71.0999984741211 14.125 1 -1
78.19999694824219 87.5 -10.583999633789062 0 -1
77.4000015258789 71.0999984741211 14.116000175476074 1 -1
77.9000015258789 79.80000305175781 -9.300999641418457 0 -1
78.0999984741211 74.9000015258789 21.347000122070312 1 -1
74.30000305175781 89.5999984741211 -10.770999908447266 0 -1
76.19999694824219 78.80000305175781 -9.722999572753906 0 -1
73.80000305175781 83.5 -10.927000045776367 0 -1
79.5999984741211 75.19999694824219 13.031000137329102 1 -1
78.9000015258789 75.30000305175781 16.708999633789062 1 -1
76.5999984741211 72.30000305175781 14.154000282287598 1 -1
73 87.30000305175781 -10.795999526977539 0 -1
71.9000015258789 89.30000305175781 -10.767000198364258 0 -1
77.4000015258789 77.5 -8.79699993133545 0 -1
73.5999984741211 82.0999984741211 -10.982999801635742 0 -1
75.69999694824219 74.19999694824219 11.843999862670898 1 -1
75.5999984741211 87 -10.359000205993652 0 -1
73.19999694824219 73 14.170000076293945 1 -1
79.19999694824219 72.19999694824219 14.104000091552734 1 -1
73.0999984741211 71.80000305175781 14.142999649047852 1 -1
77.30000305175781 81.4000015258789 -10.1850004196167 0 -1
75 88 -10.793000221252441 0 -1
76.4000015258789 76 -8.954000473022461 0 -1
77 83.0999984741211 -9.970999717712402 0 -1
71.5 87.5 -10.222999572753906 0 -1
79.80000305175781 71.5 14.104999542236328 1 -1
74.9000015258789 86.9000015258789 -10.904999732971191 0 -1
78 82.69999694824219 -9.902000427246094 0 -1
74.69999694824219 80.19999694824219 -10.355999946594238 0 -1
77.5999984741211 88.80000305175781 -9.883000373840332 0 -1
72.9000015258789 76.5 -8.267999649047852 0 -1
78.19999694824219 87.0999984741211 -10.616000175476074 0 -1
74 71.4000015258789 14.104000091552734 1 -1
73.69999694824219 86 -10.897000312805176 0 -1
76.69999694824219 80.5999984741211 -9.947999954223633 0 -1
78.9000015258789 77.30000305175781 -8.595999717712402 0 -1
77.19999694824219 80.5 -9.850000381469727 0 -1
78.5999984741211 86.4000015258789 -10.831000328063965 0 -1
72.19999694824219 87.9000015258789 -10.493000030517578 0 -1
74.80000305175781 89.69999694824219 -10.545000076293945 0 -1
74.30000305175781 89.80000305175781 -9.951000213623047 0 -1
79.4000015258789 79.19999694824219 -8.82800006866455 0 -1
79.30000305175781 75.19999694824219 22.235000610351562 1 -1
79.19999694824219 86.9000015258789 -10.427000045776367 0 -1
72.4000015258789 89.19999694824219 -10.920000076293945 0 -1
71.80000305175781 80.69999694824219 16.642000198364258 1 -1
78.4000015258789 81.5 -9.998000144958496 0 -1
74.9000015258789 71.69999694824219 14.140999794006348 1 -1
78.0999984741211 88.5 -9.677000045776367 0 -1
72 86.5999984741211 -9.878999710083008 0 -1
73.5 89.19999694824219 -10.991000175476074 0 -1
71.69999694824219 87.9000015258789 -10.520999908447266 0 -1
73.5999984741211 82.80000305175781 -11.267999649047852 0 -1
73 87.80000305175781 -10.913999557495117 0 -1
73.0999984741211 84.69999694824219 -10.875 0 -1
72 71.9000015258789 14.13700008392334 1 -1
76.9000015258789 77.69999694824219 -8.956000328063965 0 -1
73.19999694824219 73.19999694824219 14.10200023651123 1 -1
74.0999984741211 72.30000305175781 14.119999885559082 1 -1
77.0999984741211 82.5999984741211 -10.60200023651123 0 -1
77.19999694824219 81.30000305175781 -10.1850004196167 0 -1
77.5 85.19999694824219 -9.746999740600586 0 -1
76.5999984741211 72.4000015258789 14.15999984741211 1 -1
78.5 89 -8.420999526977539 0 -1
71.30000305175781 88.69999694824219 -10.682999610900879 0 -1
73.19999694824219 85.9000015258789 -10.704000473022461 0 -1
72.30000305175781 86.0999984741211 -9.866999626159668 0 -1
78.69999694824219 87.0999984741211 -10.557000160217285 0 -1
79.80000305175781 71.30000305175781 14.104999542236328 1 -1
72.4000015258789 89.0999984741211 -10.970999717712402 0 -1
73.69999694824219 85 -10.89799976348877 0 -1
73.5 90 -9.166000366210938 0 -1
71.80000305175781 80.5999984741211 16.715999603271484 1 -1
71.5 87.30000305175781 -9.854000091552734 0 -1
73.30000305175781 81.4000015258789 -10.781999588012695 0 -1
78.5 88.9000015258789 -8.67199993133545 0 -1
72 86.69999694824219 -9.760000228881836 0 -1
74.0999984741211 72.19999694824219 14.121999740600586 1 -1
78 82.9000015258789 -9.847000122070312 0 -1
75.4000015258789 86.69999694824219 -10.503000259399414 0 -1
73.19999694824219 73.0999984741211 14.100000381469727 1 -1
77.30000305175781 80.4000015258789 -9.850000381469727 0 -1
76.5999984741211 85.19999694824219 -10.163000106811523 0 -1
74.0999984741211 76.80000305175781 -8.388999938964844 0 -1
77 83 -10.449999809265137 0 -1
73 87.69999694824219 -10.958999633789062 0 -1
79.19999694824219 72.0999984741211 14.109999656677246 1 -1
73.19999694824219 86 -10.732000350952148 0 -1
73.30000305175781 81.30000305175781 -10.744999885559082 0 -1
73.0999984741211 71.9000015258789 14.130000114440918 1 -1
79.5999984741211 81.5 -9.947999954223633 0 -1
71.19999694824219 85.5999984741211 -10.666999816894531 0 -1
77.4000015258789 77.5999984741211 -8.75 0 -1
71.69999694824219 87.69999694824219 -10.407999992370605 0 -1
71.5 87.4000015258789 -10.107000350952148 0 -1
75.19999694824219 76.0999984741211 -8.40999984741211 0 -1
76.0999984741211 88.9000015258789 -10.085000038146973 0 -1
74.5999984741211 75.19999694824219 -8.67199993133545 0 -1
73.5 71.0999984741211 14.112000465393066 1 -1
77.30000305175781 80.5 -9.91100025177002 0 -1
74.9000015258789 87 -10.902000427246094 0 -1
71.4000015258789 83.80000305175781 -11.274999618530273 0 -1
72.19999694824219 87.80000305175781 -10.529000282287598 0 -1
74.0999984741211 76.9000015258789 -7.999000072479248 0 -1
74 71.30000305175781 14.128999710083008 1 -1
74.80000305175781 89.5999984741211 -10.503999710083008 0 -1
79 76.5999984741211 22.51300048828125 1 -1
77.5 85.0999984741211 -9.763999938964844 0 -1
73.80000305175781 83.5999984741211 -10.972999572753906 0 -1
78.5999984741211 86.30000305175781 -10.78499984741211 0 -1
78.19999694824219 87.19999694824219 -10.605999946594238 0 -1
79.19999694824219 87 -10.41100025177002 0 -1
74.0999984741211 72.4000015258789 14.121000289916992 1 -1
77.5999984741211 88.69999694824219 -9.96399974822998 0 -1
79.4000015258789 79.0999984741211 -8.711000442504883 0 -1
75 87.9000015258789 -10.803000450134277 0 -1
79.5999984741211 81.80000305175781 -9.97700023651123 0 -1
77.5999984741211 74.9000015258789 21.066999435424805 1 -1
72.30000305175781 86.4000015258789 -9.718999862670898 0 -1
76 88.80000305175781 -10.289999961853027 0 -1
73.0999984741211 84.5999984741211 -10.857999801635742 0 -1
73 72.5 14.131999969482422 1 -1
73.19999694824219 85.80000305175781 -10.831000328063965 0 -1
74.9000015258789 72.0999984741211 14.128999710083008 1 -1
77.19999694824219 81.4000015258789 -10.28600025177002 0 -1
76.9000015258789 77.80000305175781 -8.99899959564209 0 -1
78.5999984741211 87.80000305175781 -10.475000381469727 0 -1
71.30000305175781 88.5999984741211 -10.645000457763672 0 -1
73.80000305175781 83.69999694824219 -10.982999801635742 0 -1
77.5999984741211 88.5999984741211 -9.937000274658203 0 -1
76.5999984741211 85.0999984741211 -10.17199993133545 0 -1
79.4000015258789 79 -9.331000328063965 0 -1
76.0999984741211 83.0999984741211 -10.767999649047852 0 -1
73.69999694824219 85.0999984741211 -10.868000030517578 0 -1
77.0999984741211 85.30000305175781 -9.845999717712402 0 -1
76 88.5999984741211 -10.03600025177002 0 -1
79.30000305175781 75.0999984741211 22.224000930786133 1 -1
73.9000015258789 77 -7.821000099182129 0 -1
73.5999984741211 82.69999694824219 -11.307999610900879 0 -1
79.80000305175781 71.4000015258789 14.121999740600586 1 -1
77.5999984741211 75 21.03499984741211 1 -1
76.69999694824219 79.19999694824219 -9.824000358581543 0 -1
78.4000015258789 81.5999984741211 -10.081999778747559 0 -1
71.5 87.19999694824219 -9.869000434875488 0 -1
79.5999984741211 81.9000015258789 -10 0 -1
74.69999694824219 79.9000015258789 -10.310999870300293 0 -1
74.30000305175781 89.9000015258789 -9.868000030517578 0 -1
71.4000015258789 83.5999984741211 -11.22599983215332 0 -1
79.19999694824219 72 14.112000465393066 1 -1
77.9000015258789 79.69999694824219 -9.255000114440918 0 -1
77.4000015258789 71 14.119000434875488 1 -1
76.80000305175781 76.5999984741211 17.229000091552734 1 -1
72.5999984741211 79.9000015258789 17.139999389648438 1 -1
76.5999984741211 72 14.154000282287598 1 -1
71.9000015258789 89.4000015258789 -10.779999732971191 0 -1
75.4000015258789 85.30000305175781 -10.51200008392334 0 -1
75.9000015258789 81.5999984741211 -10.529000282287598 0 -1
76.19999694824219 78.9000015258789 -9.767999649047852 0 -1
73.5 89.9000015258789 -9.980999946594238 0 -1
78.0999984741211 88.4000015258789 -9.57800006866455 0 -1
72.4000015258789 89.5 -10.826000213623047 0 -1
77.19999694824219 81.19999694824219 -10.14799976348877 0 -1
71.69999694824219 87.80000305175781 -10.46500015258789 0 -1
75 87.69999694824219 -10.824000358581543 0 -1
71.19999694824219 86 -9.880999565124512 0 -1
72 86.80000305175781 -9.946000099182129 0 -1
73.5999984741211 82.9000015258789 -11.307999610900879 0 -1
72 71.80000305175781 14.121999740600586 1 -1
76.9000015258789 77.5999984741211 -8.920999526977539 0 -1
79.19999694824219 89.0999984741211 -10.267000198364258 0 -1
75.5 78.4000015258789 -9.161999702453613 0 -1
74 71.19999694824219 14.128999710083008 1 -1
75.5999984741211 87.0999984741211 -10.347000122070312 0 -1
77.5 85 -9.746999740600586 0 -1
77.0999984741211 85.5 -10.121000289916992 0 -1
72.19999694824219 87.69999694824219 -10.493000030517578 0 -1
78.4000015258789 78.0999984741211 -8.322999954223633 0 -1
78.69999694824219 87 -10.567000389099121 0 -1
74.9000015258789 86.5999984741211 -10.904999732971191 0 -1
79.80000305175781 71.19999694824219 14.121999740600586 1 -1
75 87.80000305175781 -10.814000129699707 0 -1
74.0999984741211 77.19999694824219 -8.326000213623047 0 -1
79.5999984741211 81.69999694824219 -9.947999954223633 0 -1
72.30000305175781 86.5 -9.791000366210938 0 -1
79.30000305175781 76.9000015258789 -8.711000442504883 0 -1
79.5999984741211 75 22.18000030517578 1 -1
73.69999694824219 85.19999694824219 -10.89799976348877 0 -1
72.30000305175781 86.30000305175781 -9.866999626159668 0 -1
74.9000015258789 72 14.131999969482422 1 -1
78 83 -9.819000244140625 0 -1
75.69999694824219 76.69999694824219 -8.348999977111816 0 -1
72 86.9000015258789 -9.817000389099121 0 -1
72 71.69999694824219 14.20199966430664 1 -1
73 87.5999984741211 -10.843999862670898 0 -1
73.0999984741211 84.5 -10.789999961853027 0 -1
71 78.19999694824219 -8.96500015258789 0 -1
79.0999984741211 76.80000305175781 22.711999893188477 1 -1
76.5999984741211 85 -10.180000305175781 0 -1
75.4000015258789 85.5 -10.362000465393066 0 -1
76.19999694824219 79.0999984741211 -9.767999649047852 0 -1
73.30000305175781 81.19999694824219 -10.781999588012695 0 -1
77.0999984741211 85.4000015258789 -9.809000015258789 0 -1
78.4000015258789 78.19999694824219 -8.291999816894531 0 -1
74.0999984741211 77.30000305175781 -8.307000160217285 0 -1
74.80000305175781 90 -8.772000312805176 0 -1
76.69999694824219 76.9000015258789 16.325000762939453 1 -1
76.69999694824219 79.30000305175781 -9.878999710083008 0 -1
78.5999984741211 87.69999694824219 -10.46500015258789 0 -1
71.69999694824219 87.5999984741211 -10.35200023651123 0 -1
76.0999984741211 83 -10.75 0 -1
76 88.69999694824219 -10.291999816894531 0 -1
71.19999694824219 85.9000015258789 -9.996000289916992 0 -1
71.30000305175781 89 -10.862000465393066 0 -1
79.69999694824219 80.19999694824219 -9.23799991607666 0 -1
71.5 87.0999984741211 -9.854000091552734 0 -1
79.5999984741211 74.9000015258789 22.54400062561035 1 -1
79 76.69999694824219 22.726999282836914 1 -1
73.30000305175781 81.0999984741211 -10.744999885559082 0 -1
79.19999694824219 89.19999694824219 -10.258000373840332 0 -1
77.30000305175781 80.5999984741211 -9.954000473022461 0 -1
71.4000015258789 83.69999694824219 -11.270999908447266 0 -1
76.19999694824219 79 -9.722999572753906 0 -1
76.80000305175781 76.69999694824219 16.299999237060547 1 -1
74.5999984741211 74.9000015258789 -8.604999542236328 0 -1
76.5999984741211 72.0999984741211 14.154000282287598 1 -1
71.9000015258789 89.5 -10.767000198364258 0 -1
77.5999984741211 89.5 -8.751999855041504 0 -1
73 88 -11.20199966430664 0 -1
78.69999694824219 86.80000305175781 -10.444000244140625 0 -1
75 87.5999984741211 -10.833999633789062 0 -1
78.5 87.19999694824219 -10.482999801635742 0 -1
73.80000305175781 83.80000305175781 -10.972999572753906 0 -1
78.69999694824219 73.69999694824219 -8.604000091552734 0 -1
76.5999984741211 85.5 -10.1899995803833 0 -1
75.5 78.5 -9.116000175476074 0 -1
71.5 71.80000305175781 14.182000160217285 1 -1
77.30000305175781 80.69999694824219 -9.99899959564209 0 -1
72.19999694824219 87.5999984741211 -10.456999778747559 0 -1
74.9000015258789 86.69999694824219 -10.91100025177002 0 -1
75.5999984741211 87.19999694824219 -10.359000205993652 0 -1
73 72.5999984741211 14.135000228881836 1 -1
79.30000305175781 75 22.065000534057617 1 -1
79.19999694824219 71.9000015258789 14.11400032043457 1 -1
77 82.9000015258789 -10.47700023651123 0 -1
77.5999984741211 75.0999984741211 21.066999435424805 1 -1
76.9000015258789 77.5 -8.862000465393066 0 -1
74.9000015258789 71.4000015258789 14.119999885559082 1 -1
73.9000015258789 76.9000015258789 -7.999000072479248 0 -1
73.69999694824219 85.30000305175781 -10.868000030517578 0 -1
71.80000305175781 79.30000305175781 16.756999969482422 1 -1
75.9000015258789 81.5 -10.569000244140625 0 -1
79.4000015258789 78.9000015258789 -9.314000129699707 0 -1
74.69999694824219 80 -10.355999946594238 0 -1
78.0999984741211 75.30000305175781 21.957000732421875 1 -1
71.5 71.69999694824219 14.180000305175781 1 -1
79.80000305175781 71.0999984741211 12.963000297546387 1 -1
73.80000305175781 83.9000015258789 -10.982999801635742 0 -1
76 89 -10.17199993133545 0 -1
71.69999694824219 86.4000015258789 -9.890000343322754 0 -1
75.69999694824219 76.5999984741211 -8.324999809265137 0 -1
73 72.69999694824219 14.173999786376953 1 -1
75.4000015258789 85.4000015258789 -10.484999656677246 0 -1
74.80000305175781 89.9000015258789 -9.043999671936035 0 -1
71.30000305175781 88.9000015258789 -10.92199993133545 0 -1
76.69999694824219 76.80000305175781 16.457000732421875 1 -1
73.5999984741211 82.5 -10.845000267028809 0 -1
74.80000305175781 72.5 14.114999771118164 1 -1
71.30000305175781 71.5 14.142999649047852 1 -1
78.5999984741211 87.5999984741211 -10.51099967956543 0 -1
71.4000015258789 83.5 -11.255000114440918 0 -1
73.0999984741211 84.9000015258789 -10.875 0 -1
72.4000015258789 89.4000015258789 -10.920000076293945 0 -1
77.19999694824219 81.0999984741211 -10.111000061035156 0 -1
74.69999694824219 80.0999984741211 -10.310999870300293 0 -1
77.0999984741211 85.0999984741211 -9.762999534606934 0 -1
73.9000015258789 76.80000305175781 -7.9730000495910645 0 -1
74.30000305175781 90 -8.883999824523926 0 -1
73.5 89.80000305175781 -10.762999534606934 0 -1
76.5999984741211 71.69999694824219 14.154999732971191 1 -1
73.19999694824219 85.69999694824219 -10.847999572753906 0 -1
74.5999984741211 75 -8.67199993133545 0 -1
76.69999694824219 78.9000015258789 -9.689000129699707 0 -1
79.19999694824219 89.30000305175781 -9.961999893188477 0 -1
75.9000015258789 81.80000305175781 -10.685999870300293 0 -1
71.9000015258789 88.69999694824219 -10.940999984741211 0 -1
78.69999694824219 86.9000015258789 -10.41100025177002 0 -1
75.5999984741211 87.4000015258789 -10.380999565124512 0 -1
78.0999984741211 75.5 21.309999465942383 1 -1
78.9000015258789 75 16.95800018310547 1 -1
77 82.69999694824219 -10.524999618530273 0 -1
76.5999984741211 85.4000015258789 -10.145000457763672 0 -1
75.4000015258789 85.0999984741211 -10.51200008392334 0 -1
75.5 78.5999984741211 -9.161999702453613 0 -1
73 87.9000015258789 -10.793000221252441 0 -1
77.0999984741211 85 -9.800999641418457 0 -1
74.9000015258789 87.30000305175781 -10.864999771118164 0 -1
78 83.0999984741211 -9.654000282287598 0 -1
79.30000305175781 77 -8.661999702453613 0 -1
72 87 -9.859999656677246 0 -1
71.5 71.9000015258789 14.180000305175781 1 -1
75.9000015258789 81.9000015258789 -10.647000312805176 0 -1
78 83.30000305175781 -9.949000358581543 0 -1
74.80000305175781 88.30000305175781 -10.82699966430664 0 -1
75.5999984741211 87.30000305175781 -10.347000122070312 0 -1
77 82.80000305175781 -10.524999618530273 0 -1
78.5 87.0999984741211 -10.5 0 -1
77.30000305175781 80.80000305175781 -9.954000473022461 0 -1
77.19999694824219 80.9000015258789 -10.036999702453613 0 -1
78.4000015258789 78.30000305175781 -8.281999588012695 0 -1
71.9000015258789 88.5999984741211 -10.885000228881836 0 -1
79.19999694824219 71.80000305175781 14.109000205993652 1 -1
71.19999694824219 85.80000305175781 -9.869000434875488 0 -1
74.4000015258789 76.9000015258789 -8.458999633789062 0 -1
75.69999694824219 76.5 -8.397000312805176 0 -1
74.69999694824219 81.69999694824219 -10.781999588012695 0 -1
73 72.19999694824219 14.121999740600586 1 -1
74.30000305175781 82 -10.663999557495117 0 -1
71.69999694824219 86.5 -9.781999588012695 0 -1
79.30000305175781 77.0999984741211 -8.612000465393066 0 -1
74.9000015258789 71.30000305175781 14.147000312805176 1 -1
73.69999694824219 85.4000015258789 -10.75 0 -1
73.5 89.5999984741211 -10.847000122070312 0 -1
73.30000305175781 81 -10.689000129699707 0 -1
72.19999694824219 84.4000015258789 -10.892999649047852 0 -1
75 86.4000015258789 -10.782999992370605 0 -1
74.80000305175781 72.5999984741211 14.119000434875488 1 -1
77.5999984741211 75.19999694824219 21.165000915527344 1 -1
77.5999984741211 89.4000015258789 -9.789999961853027 0 -1
79.4000015258789 79.80000305175781 -9.14799976348877 0 -1
75.0999984741211 76.69999694824219 -8.329000473022461 0 -1
74.4000015258789 76.80000305175781 -8.277000427246094 0 -1
73.0999984741211 84.80000305175781 -10.880999565124512 0 -1
77.0999984741211 85.19999694824219 -9.809000015258789 0 -1
73 72.30000305175781 14.154999732971191 1 -1
72.30000305175781 85.69999694824219 -9.972000122070312 0 -1
78.69999694824219 86.69999694824219 -10.41100025177002 0 -1
71 77.9000015258789 -8.595999717712402 0 -1
73.19999694824219 85.5999984741211 -10.831000328063965 0 -1
73.30000305175781 80.9000015258789 -10.744999885559082 0 -1
79.5999984741211 81.0999984741211 -9.961999893188477 0 -1
76.69999694824219 79 -9.553000450134277 0 -1
78.5 87.5 -10.51099967956543 0 -1
78.5999984741211 88 -9.821999549865723 0 -1
73.9000015258789 76.69999694824219 -8.456000328063965 0 -1
71.5999984741211 81.69999694824219 -10.916999816894531 0 -1
71.30000305175781 71.5999984741211 14.142999649047852 1 -1
71.4000015258789 84.4000015258789 -11.26200008392334 0 -1
72.4000015258789 82.5999984741211 -10.95199966430664 0 -1
77.5999984741211 89.30000305175781 -9.776000022888184 0 -1
76.5999984741211 71.80000305175781 14.154000282287598 1 -1
75 86.5 -10.770000457763672 0 -1
78.19999694824219 76.5999984741211 22.51099967956543 1 -1
79.19999694824219 89.4000015258789 -9.909000396728516 0 -1
78.0999984741211 75.4000015258789 21.729999542236328 1 -1
75.9000015258789 81.69999694824219 -10.647000312805176 0 -1
75.5999984741211 87.5 -10.37399959564209 0 -1
77 82.5999984741211 -10.524999618530273 0 -1
71.69999694824219 86.30000305175781 -9.979999542236328 0 -1
75.4000015258789 85 -10.593999862670898 0 -1
72 89.0999984741211 -10.967000007629395 0 -1
79.4000015258789 79.69999694824219 -8.984000205993652 0 -1
72 89.19999694824219 -10.99899959564209 0 -1
71.80000305175781 79.19999694824219 16.874000549316406 1 -1
76 88.9000015258789 -10.147000312805176 0 -1
71.5 87 -9.869000434875488 0 -1
72.4000015258789 82.5 -10.982999801635742 0 -1
76.0999984741211 83.4000015258789 -10.71399974822998 0 -1
79.80000305175781 71 14.163999557495117 1 -1
77.80000305175781 72 14.116000175476074 1 -1
76.5999984741211 85.30000305175781 -10.154000282287598 0 -1
78 83.19999694824219 -9.604000091552734 0 -1
74.80000305175781 88.19999694824219 -10.838000297546387 0 -1
77.69999694824219 71.19999694824219 14.15999984741211 1 -1
71.9000015258789 88.80000305175781 -10.996000289916992 0 -1
74.9000015258789 87.4000015258789 -10.871999740600586 0 -1
71.30000305175781 87.19999694824219 -10.173999786376953 0 -1
73.5999984741211 82.5999984741211 -11.267999649047852 0 -1
77.19999694824219 81 -10.074000358581543 0 -1
79.5999984741211 80.9000015258789 -9.701000213623047 0 -1
79.19999694824219 71.69999694824219 14.11299991607666 1 -1
78.69999694824219 71.80000305175781 14.105999946594238 1 -1
74.4000015258789 77 -8.461000442504883 0 -1
78.9000015258789 77.80000305175781 -8.234999656677246 0 -1
75.69999694824219 76.4000015258789 -8.461000442504883 0 -1
74.9000015258789 71.19999694824219 14.147000312805176 1 -1
71.19999694824219 82.0999984741211 -10.970000267028809 0 -1
73.69999694824219 85.5 -10.784000396728516 0 -1
73.5 89.69999694824219 -10.734000205993652 0 -1
74.80000305175781 72.69999694824219 14.114999771118164 1 -1
79.19999694824219 73.69999694824219 17.172000885009766 1 -1
71.5999984741211 81.9000015258789 -10.9399995803833 0 -1
73.19999694824219 84.4000015258789 -10.87399959564209 0 -1
78.5999984741211 73 14.109999656677246 1 -1
79.80000305175781 82.5999984741211 -9.753000259399414 0 -1
75.4000015258789 85.19999694824219 -10.484999656677246 0 -1
72.19999694824219 84.30000305175781 -10.987000465393066 0 -1
77.19999694824219 81.80000305175781 -10.369000434875488 0 -1
79.5999984741211 81 -9.901000022888184 0 -1
76.69999694824219 79.0999984741211 -9.659000396728516 0 -1
71.19999694824219 82 -10.979000091552734 0 -1
76.0999984741211 83.19999694824219 -10.71399974822998 0 -1
78.4000015258789 77.9000015258789 -8.322999954223633 0 -1
76 88.19999694824219 -10.114999771118164 0 -1
73.5 86.4000015258789 -10.729999542236328 0 -1
76.5999984741211 71.9000015258789 14.154999732971191 1 -1
77.9000015258789 78.30000305175781 -8.487000465393066 0 -1
73.0999984741211 85.19999694824219 -10.48900032043457 0 -1
78.4000015258789 78 -8.312999725341797 0 -1
73.80000305175781 82 -10.880000114440918 0 -1
71.5 86.80000305175781 -9.89900016784668 0 -1
76.5 76.0999984741211 -9.178999900817871 0 -1
79.30000305175781 77.19999694824219 -8.562999725341797 0 -1
78.5999984741211 87.9000015258789 -9.890000343322754 0 -1
78 83.4000015258789 -9.904999732971191 0 -1
71.30000305175781 71.19999694824219 14.196999549865723 1 -1
79.19999694824219 89.5 -9.855999946594238 0 -1
75 86.30000305175781 -10.770000457763672 0 -1
74.69999694824219 81.80000305175781 -10.786999702453613 0 -1
76.5999984741211 85.69999694824219 -10.192999839782715 0 -1
74.0999984741211 74.30000305175781 -8.454000473022461 0 -1
76.0999984741211 83.30000305175781 -10.696000099182129 0 -1
74.30000305175781 82.0999984741211 -10.642999649047852 0 -1
74.80000305175781 72.19999694824219 14.154999732971191 1 -1
77.30000305175781 79.9000015258789 -9.432999610900879 0 -1
75.5 79.30000305175781 16.05699920654297 1 -1
74.80000305175781 88.0999984741211 -10.82699966430664 0 -1
71.5 86.9000015258789 -9.913999557495117 0 -1
79.30000305175781 77.30000305175781 -8.368000030517578 0 -1
71.9000015258789 88.9000015258789 -10.819000244140625 0 -1
74.9000015258789 87.5 -10.864999771118164 0 -1
73.80000305175781 82.0999984741211 -10.890999794006348 0 -1
77.69999694824219 71.30000305175781 14.138999938964844 1 -1
78.9000015258789 77.69999694824219 -8.295000076293945 0 -1
75.69999694824219 76.30000305175781 -8.758000373840332 0 -1
74.69999694824219 81.9000015258789 -10.781999588012695 0 -1
71.80000305175781 79.0999984741211 16.847000122070312 1 -1
78.69999694824219 71.69999694824219 14.116999626159668 1 -1
75.0999984741211 76.5999984741211 -8.310999870300293 0 -1
73 86.19999694824219 -10.491999626159668 0 -1
72.30000305175781 85.5999984741211 -9.845000267028809 0 -1
78.69999694824219 86.5999984741211 -10.878000259399414 0 -1
73.5999984741211 85.30000305175781 -10.982999801635742 0 -1
78.5 87.4000015258789 -10.515000343322754 0 -1
73 72.4000015258789 14.128999710083008 1 -1
78.5 71.5 14.157999992370605 1 -1
73.9000015258789 76.5999984741211 -8.428999900817871 0 -1
71.30000305175781 87.0999984741211 -10.20300006866455 0 -1
77.5999984741211 89.19999694824219 -9.789999961853027 0 -1
71.5999984741211 81.80000305175781 -10.862000465393066 0 -1
76.80000305175781 73.9000015258789 -8.968000411987305 0 -1
79.80000305175781 82.80000305175781 -9.720000267028809 0 -1
73.69999694824219 82.5 -11.093999862670898 0 -1
78.5999984741211 73.0999984741211 14.112000465393066 1 -1
79.19999694824219 73.5999984741211 17.22599983215332 1 -1
77.9000015258789 78.0999984741211 -8.083000183105469 0 -1
72.19999694824219 84.19999694824219 -10.99899959564209 0 -1
72.30000305175781 85.9000015258789 -9.718000411987305 0 -1
74.9000015258789 71.5999984741211 14.140999794006348 1 -1
78.9000015258789 75.19999694824219 21.93600082397461 1 -1
71.4000015258789 84.30000305175781 -11.253000259399414 0 -1
74.30000305175781 82.30000305175781 -10.763999938964844 0 -1
72.4000015258789 82.9000015258789 -11.14799976348877 0 -1
71.80000305175781 79 17.156999588012695 1 -1
78.5 87.30000305175781 -10.527999877929688 0 -1
77.19999694824219 81.9000015258789 -10.40999984741211 0 -1
79.4000015258789 79.5999984741211 -9.038999557495117 0 -1
75.0999984741211 76.5 -8.329000473022461 0 -1
71.69999694824219 86.19999694824219 -9.989999771118164 0 -1
72 89.30000305175781 -10.756999969482422 0 -1
73.5 86.5 -10.6850004196167 0 -1
77.80000305175781 72.0999984741211 14.107000350952148 1 -1
79.5999984741211 81.30000305175781 -9.961999893188477 0 -1
73 86.0999984741211 -10.515999794006348 0 -1
76 88.30000305175781 -10.107999801635742 0 -1
73.9000015258789 76.5 -8.456000328063965 0 -1
78.80000305175781 74.9000015258789 16.597000122070312 1 -1
73.0999984741211 85.0999984741211 -10.428000450134277 0 -1
77.9000015258789 78.19999694824219 -8.4399995803833 0 -1
76.0999984741211 83.5999984741211 -10.6899995803833 0 -1
71.5 86.69999694824219 -9.913999557495117 0 -1
75 86.19999694824219 -10.782999992370605 0 -1
76.5999984741211 85.5999984741211 -10.187999725341797 0 -1
74.80000305175781 72.30000305175781 14.161999702453613 1 -1
71.30000305175781 71.30000305175781 14.13700008392334 1 -1
78.5 71.5999984741211 14.164999961853027 1 -1
76.80000305175781 77.0999984741211 16.19300079345703 1 -1
78.69999694824219 71.9000015258789 14.147000312805176 1 -1
77.0999984741211 85.80000305175781 -10.220999717712402 0 -1
75.5 79.19999694824219 16.082000732421875 1 -1
77.5999984741211 89.0999984741211 -9.855999946594238 0 -1
77.69999694824219 71.4000015258789 14.147000312805176 1 -1
78.69999694824219 86.4000015258789 -10.779999732971191 0 -1
79.4000015258789 79.5 -8.88700008392334 0 -1
74.5999984741211 74.30000305175781 -8.33899974822998 0 -1
73.5999984741211 85.5 -10.982999801635742 0 -1
72 89.4000015258789 -10.781000137329102 0 -1
78.80000305175781 75 22.011999130249023 1 -1
76.0999984741211 83.69999694824219 -10.701000213623047 0 -1
79.5999984741211 81.4000015258789 -9.862000465393066 0 -1
73.5 86.30000305175781 -10.6850004196167 0 -1
75.9000015258789 81.0999984741211 -10.6850004196167 0 -1
78.9000015258789 77.4000015258789 -8.553999900817871 0 -1
71 78 -8.559000015258789 0 -1
79.5999984741211 75.30000305175781 12.996000289916992 1 -1
77.19999694824219 81.69999694824219 -10.40999984741211 0 -1
77.30000305175781 80 -9.645999908447266 0 -1
75.69999694824219 76.19999694824219 -8.734000205993652 0 -1
79.80000305175781 82.69999694824219 -9.720999717712402 0 -1
79.19999694824219 89.5999984741211 -9.803000450134277 0 -1
75.4000015258789 85.80000305175781 -10.63599967956543 0 -1
71.4000015258789 84.0999984741211 -11.206000328063965 0 -1
74.9000015258789 87.0999984741211 -10.904999732971191 0 -1
75.5999984741211 87.5999984741211 -10.371999740600586 0 -1
71.5999984741211 81.5 -10.916999816894531 0 -1
76 88.0999984741211 -10.107999801635742 0 -1
77 82.5 -10.524999618530273 0 -1
75.9000015258789 74.19999694824219 11.880999565124512 1 -1
72.30000305175781 86 -9.590999603271484 0 -1
77.30000305175781 80.0999984741211 -9.699000358581543 0 -1
71.19999694824219 82.4000015258789 -11.125 0 -1
78.5 87.80000305175781 -10.560999870300293 0 -1
73 72 14.121999740600586 1 -1
78 83.5 -9.859999656677246 0 -1
74.80000305175781 88.5 -10.765000343322754 0 -1
73.69999694824219 82.5999984741211 -11.067999839782715 0 -1
71.30000305175781 87.5 -10.260000228881836 0 -1
78.5999984741211 73.19999694824219 14.11400032043457 1 -1
74.30000305175781 82.19999694824219 -10.776000022888184 0 -1
77.0999984741211 86 -10.220999717712402 0 -1
72.19999694824219 84.0999984741211 -11.13599967956543 0 -1
74.9000015258789 71.5 14.140000343322754 1 -1
78.9000015258789 75.0999984741211 22.011999130249023 1 -1
74.4000015258789 77.0999984741211 -8.458999633789062 0 -1
77.9000015258789 78.5 -8.579999923706055 0 -1
78.4000015258789 78.5999984741211 -8.480999946594238 0 -1
73.80000305175781 82.19999694824219 -10.857000350952148 0 -1
77.80000305175781 71.80000305175781 14.138999938964844 1 -1
78.5999984741211 87.19999694824219 -10.527999877929688 0 -1
79.5999984741211 81.19999694824219 -9.901000022888184 0 -1
74.69999694824219 81.5 -10.772000312805176 0 -1
73.19999694824219 84.30000305175781 -10.88700008392334 0 -1
78.5 87.69999694824219 -10.51099967956543 0 -1
79.5999984741211 75.5 12.996000289916992 1 -1
71.30000305175781 71.4000015258789 14.196999549865723 1 -1
74.30000305175781 82.4000015258789 -10.798999786376953 0 -1
73.0999984741211 85 -10.880999565124512 0 -1
73 72.0999984741211 14.121999740600586 1 -1
79.19999694824219 73.5 17.518999099731445 1 -1
75.4000015258789 86 -10.633999824523926 0 -1
75.9000015258789 80.9000015258789 -10.623000144958496 0 -1
74.80000305175781 72.4000015258789 14.121999740600586 1 -1
79.30000305175781 77.4000015258789 -8.435999870300293 0 -1
73.0999984741211 85.5 -10.758000373840332 0 -1
77.0999984741211 85.9000015258789 -10.187999725341797 0 -1
78.69999694824219 86.5 -10.821000099182129 0 -1
76.0999984741211 83.5 -10.696000099182129 0 -1
73.5999984741211 85.4000015258789 -10.949999809265137 0 -1
78.69999694824219 72 14.145999908447266 1 -1
75.5999984741211 87.80000305175781 -10.371999740600586 0 -1
78.4000015258789 78.69999694824219 -8.670999526977539 0 -1
73.80000305175781 82.30000305175781 -10.845000267028809 0 -1
74.4000015258789 77.30000305175781 19.54400062561035 1 -1
77.5999984741211 90 -8.697999954223633 0 -1
77.69999694824219 71.5 14.111000061035156 1 -1
78.69999694824219 86.30000305175781 -10.821000099182129 0 -1
74.0999984741211 74.69999694824219 13.093000411987305 1 -1
78.5 71.19999694824219 14.128999710083008 1 -1
75.69999694824219 76.0999984741211 -8.758000373840332 0 -1
76.4000015258789 75.19999694824219 21.246000289916992 1 -1
71.80000305175781 78.9000015258789 17.32200050354004 1 -1
79.5999984741211 75.4000015258789 13.031000137329102 1 -1
73.9000015258789 75.30000305175781 20.665000915527344 1 -1
79.80000305175781 82.9000015258789 -9.711999893188477 0 -1
71.4000015258789 84.19999694824219 -11.204000473022461 0 -1
75.9000015258789 81 -10.654000282287598 0 -1
72.4000015258789 82.80000305175781 -11.067999839782715 0 -1
71.69999694824219 86.0999984741211 -9.619999885559082 0 -1
79.30000305175781 77.5 -8.229999542236328 0 -1
79.5 74.30000305175781 16.735000610351562 1 -1
72.30000305175781 85.80000305175781 -9.590999603271484 0 -1
78.69999694824219 73.19999694824219 14.095999717712402 1 -1
75.5 78 16.030000686645508 1 -1
76.5 76.80000305175781 17.513999938964844 1 -1
73.30000305175781 80.5999984741211 16.559999465942383 1 -1
76.5 76.19999694824219 -9.213000297546387 0 -1
71.5 72.30000305175781 14.190999984741211 1 -1
79.19999694824219 89.69999694824219 -9.461999893188477 0 -1
72.4000015258789 73.5 14.121000289916992 1 -1
78 83.69999694824219 -9.770999908447266 0 -1
72.69999694824219 74.5 13.109000205993652 1 -1
79.9000015258789 79.19999694824219 12.958000183105469 1 -1
72.0999984741211 78.30000305175781 19.707000732421875 1 -1
71.5999984741211 81.5999984741211 -10.871000289916992 0 -1
75.0999984741211 76.4000015258789 -8.380999565124512 0 -1
75.5999984741211 87.69999694824219 -10.37399959564209 0 -1
77 82.4000015258789 -10.52299976348877 0 -1
73.19999694824219 84.0999984741211 -10.763999938964844 0 -1
72.69999694824219 81.0999984741211 17.023000717163086 1 -1
79.0999984741211 74.19999694824219 16.75200080871582 1 -1
74.4000015258789 77.19999694824219 19.716999053955078 1 -1
75.0999984741211 76.30000305175781 -8.36400032043457 0 -1
78.30000305175781 74 16.893999099731445 1 -1
79.9000015258789 77.5 13.008000373840332 1 -1
76.5999984741211 86 -9.972000122070312 0 -1
71.9000015258789 89 -10.805999755859375 0 -1
79 74.30000305175781 16.780000686645508 1 -1
74 77.69999694824219 19.41200065612793 1 -1
79.80000305175781 72.5999984741211 17.430999755859375 1 -1
74.9000015258789 87.19999694824219 -10.902000427246094 0 -1
74.19999694824219 78.5999984741211 17.31599998474121 1 -1
72.9000015258789 75.30000305175781 19.014999389648438 1 -1
74.80000305175781 73 14.107999801635742 1 -1
72.4000015258789 82.69999694824219 -10.979999542236328 0 -1
73.9000015258789 76.4000015258789 -8.53600025177002 0 -1
76 88.5 -10.050000190734863 0 -1
74.80000305175781 88.4000015258789 -10.907999992370605 0 -1
72.5 76.4000015258789 19.347000122070312 1 -1
73.69999694824219 82.69999694824219 -11.093999862670898 0 -1
71.30000305175781 72 14.166000366210938 1 -1
76.30000305175781 74.0999984741211 11.904999732971191 1 -1
75.19999694824219 78.4000015258789 17.141000747680664 1 -1
77.80000305175781 71.69999694824219 14.157999992370605 1 -1
71.5 72.19999694824219 14.128999710083008 1 -1
72.80000305175781 79.4000015258789 17.1200008392334 1 -1
76.80000305175781 74.19999694824219 -9.104000091552734 0 -1
79.69999694824219 81.69999694824219 12.902999877929688 1 -1
73.5999984741211 85.0999984741211 -10.821999549865723 0 -1
73 86.5 -10.503000259399414 0 -1
72.19999694824219 84 -11.142000198364258 0 -1
74.5999984741211 74.4000015258789 -8.366000175476074 0 -1
71.30000305175781 87.4000015258789 -10.288999557495117 0 -1
76.4000015258789 74.80000305175781 20.503999710083008 1 -1
76.5 76.9000015258789 17.062000274658203 1 -1
76.30000305175781 75.0999984741211 20.6299991607666 1 -1
72.5999984741211 74.0999984741211 14.097999572753906 1 -1
74.19999694824219 79.69999694824219 16.180999755859375 1 -1
75.5 79.0999984741211 16.05699920654297 1 -1
74.0999984741211 74.5 13.093000411987305 1 -1
74.19999694824219 78.69999694824219 17.60700035095215 1 -1
79.4000015258789 79.4000015258789 -8.82800006866455 0 -1
74.5 75.69999694824219 20.365999221801758 1 -1
73.30000305175781 79.5 17.937999725341797 1 -1
78.80000305175781 75.0999984741211 21.93600082397461 1 -1
73.5 72.9000015258789 14.118000030517578 1 -1
71.5999984741211 78.5 18.56999969482422 1 -1
73.19999694824219 84.19999694824219 -10.739999771118164 0 -1
72.4000015258789 72.9000015258789 14.123000144958496 1 -1
78.5999984741211 72.80000305175781 14.152999877929688 1 -1
73.4000015258789 75.30000305175781 -8.793999671936035 0 -1
72 73.19999694824219 14.16100025177002 1 -1
78.9000015258789 77.5 21.003999710083008 1 -1
72.69999694824219 81.69999694824219 -10.704000473022461 0 -1
71.19999694824219 82.30000305175781 -11.164999961853027 0 -1
72 89.5 -10.708999633789062 0 -1
72 73.0999984741211 14.163999557495117 1 -1
77.19999694824219 81.5999984741211 -10.369000434875488 0 -1
78.5999984741211 87.0999984741211 -10.482999801635742 0 -1
73.5 86.19999694824219 -10.916999816894531 0 -1
80 80.5 12.90999984741211 1 -1
76.69999694824219 79.4000015258789 -9.824000358581543 0 -1
73.9000015258789 76.30000305175781 -8.550000190734863 0 -1
73 86.4000015258789 -10.508999824523926 0 -1
75.69999694824219 77.0999984741211 21.19700050354004 1 -1
79.19999694824219 73.4000015258789 17.545000076293945 1 -1
71.4000015258789 84 -11.281999588012695 0 -1
75.9000015258789 73.80000305175781 13.97599983215332 1 -1
73.30000305175781 79.5999984741211 16.576000213623047 1 -1
79.9000015258789 78.5 12.97599983215332 1 -1
78.30000305175781 74.19999694824219 16.893999099731445 1 -1
71.30000305175781 71 14.152000427246094 1 -1
78.80000305175781 74.0999984741211 17.268999099731445 1 -1
75.4000015258789 85.9000015258789 -10.635000228881836 0 -1
73.0999984741211 85.4000015258789 -10.71500015258789 0 -1
79.9000015258789 78.19999694824219 12.993000030517578 1 -1
74.5999984741211 77.5 19.53499984741211 1 -1
79.5999984741211 74.0999984741211 16.461999893188477 1 -1
75.80000305175781 74 13.942000389099121 1 -1
76.4000015258789 74.19999694824219 13.114999771118164 1 -1
76.5 75.9000015258789 20.68000030517578 1 -1
72.9000015258789 74.30000305175781 12.60099983215332 1 -1
71.19999694824219 82.19999694824219 -10.99899959564209 0 -1
75.5999984741211 87.9000015258789 -10.310999870300293 0 -1
77 82.19999694824219 -10.675000190734863 0 -1
77.0999984741211 85.5999984741211 -10.086999893188477 0 -1
72.5999984741211 74.4000015258789 13.27299976348877 1 -1
76.9000015258789 77 21.326000213623047 1 -1
71.0999984741211 78.69999694824219 16.89299964904785 1 -1
79.69999694824219 80.69999694824219 12.987000465393066 1 -1
79 75.30000305175781 21.93600082397461 1 -1
79.80000305175781 89.19999694824219 -7.572000026702881 0 -1
79.30000305175781 74.4000015258789 16.66699981689453 1 -1
72.80000305175781 78.4000015258789 17.615999221801758 1 -1
74.4000015258789 77.4000015258789 19.716999053955078 1 -1
74.0999984741211 74.5999984741211 13.090999603271484 1 -1
74.69999694824219 78.5 17.79599952697754 1 -1
75.69999694824219 76 20.715999603271484 1 -1
72.0999984741211 79.30000305175781 17.283000946044922 1 -1
76.5999984741211 85.9000015258789 -9.994999885559082 0 -1
75.5 78.0999984741211 16.30900001525879 1 -1
76.0999984741211 83.9000015258789 -10.765000343322754 0 -1
76.30000305175781 74.9000015258789 20.465999603271484 1 -1
71.5 86.5999984741211 -9.65999984741211 0 -1
72.9000015258789 74.69999694824219 13.25 1 -1
78.80000305175781 74 17.166000366210938 1 -1
77.30000305175781 80.19999694824219 -9.645999908447266 0 -1
78 83.5999984741211 -9.815999984741211 0 -1
79.69999694824219 81.0999984741211 12.937999725341797 1 -1
72.5 76.19999694824219 19.347000122070312 1 -1
73.19999694824219 84 -10.739999771118164 0 -1
77.80000305175781 71.9000015258789 14.144000053405762 1 -1
77.69999694824219 71.5999984741211 14.133999824523926 1 -1
71.5 72.4000015258789 14.164999961853027 1 -1
75 86.0999984741211 -10.821999549865723 0 -1
74.69999694824219 81.5999984741211 -10.767000198364258 0 -1
73.69999694824219 82.80000305175781 -10.996999740600586 0 -1
73.4000015258789 75.5 20.16900062561035 1 -1
79.19999694824219 89.80000305175781 -6.933000087738037 0 -1
79.0999984741211 74.30000305175781 16.743000030517578 1 -1
79.80000305175781 72.69999694824219 17.62700080871582 1 -1
74.80000305175781 88.80000305175781 -10.666999816894531 0 -1
75.4000015258789 85.5999984741211 -10.395000457763672 0 -1
75.9000015258789 81.30000305175781 -10.437000274658203 0 -1
74.80000305175781 72 14.154999732971191 1 -1
79.5999984741211 74 16.066999435424805 1 -1
71.5 73.30000305175781 14.133000373840332 1 -1
76.5 75.80000305175781 20.87700080871582 1 -1
76.5 77.19999694824219 16.235000610351562 1 -1
78.4000015258789 78.80000305175781 -8.720999717712402 0 -1
74 77.80000305175781 -8.821000099182129 0 -1
74.69999694824219 78.4000015258789 17.048999786376953 1 -1
76.80000305175781 76.80000305175781 16.1200008392334 1 -1
74.30000305175781 82.5 -10.8100004196167 0 -1
77 82.30000305175781 -10.52400016784668 0 -1
78.5 87.5999984741211 -10.515000343322754 0 -1
72.5 79.4000015258789 -9.520000457763672 0 -1
74.69999694824219 81.19999694824219 -10.82699966430664 0 -1
71.30000305175781 87.30000305175781 -10.260000228881836 0 -1
