VERSION .7
FIELDS x y z label object
SIZE 4 4 4 4 4
TYPE F F F I I
COUNT 1 1 1 1 1
WIDTH 897
HEIGHT 1
POINTS 897
VIEWPOINT 0 0 0 1 0 0 0
DATA ascii
79.4000015258789 77.19999694824219 12.894000053405762 1 -1
74.30000305175781 82.4000015258789 -10.967000007629395 0 -1
73.0999984741211 85 -11.53499984741211 0 -1
73 72.0999984741211 14.130999565124512 1 -1
79.19999694824219 73.5 14.060999870300293 1 -1
75.4000015258789 86 -10.626999855041504 0 -1
71.0999984741211 79.80000305175781 -10.623000144958496 0 -1
76.4000015258789 73.80000305175781 17.680999755859375 1 -1
76.19999694824219 79.5999984741211 -9.857999801635742 0 -1
75.9000015258789 80.9000015258789 -10.454000473022461 0 -1
73.30000305175781 80.69999694824219 -10.859999656677246 0 -1
75.19999694824219 79.4000015258789 -10.161999702453613 0 -1
73.0999984741211 85.5 -11.29699993133545 0 -1
77.0999984741211 85.9000015258789 -10.350000381469727 0 -1
78.69999694824219 86.5 -10.906000137329102 0 -1
76.0999984741211 83.5 -11.532999992370605 0 -1
73.5999984741211 85.4000015258789 -10.961999893188477 0 -1
78.69999694824219 72 22.17300033569336 1 -1
75.5999984741211 87.80000305175781 -10.869000434875488 0 -1
78.4000015258789 78.69999694824219 -8.508999824523926 0 -1
73.80000305175781 82.30000305175781 -11.012999534606934 0 -1
77.5999984741211 90 -8.579000473022461 0 -1
77.5999984741211 74.5999984741211 13.043999671936035 1 -1
77.69999694824219 71.5 22.04199981689453 1 -1
78.69999694824219 86.30000305175781 -10.906000137329102 0 -1
74.0999984741211 74.69999694824219 17.94499969482422 1 -1
79.4000015258789 77.30000305175781 12.888999938964844 1 -1
78.5 71.19999694824219 22.06100082397461 1 -1
75.69999694824219 76.0999984741211 -8.755000114440918 0 -1
76.4000015258789 75.19999694824219 19.569000244140625 1 -1
79.5999984741211 75.4000015258789 13.090999603271484 1 -1
73.9000015258789 75.30000305175781 20.68400001525879 1 -1
79.80000305175781 82.9000015258789 12.800000190734863 1 -1
71.4000015258789 84.19999694824219 -10.812999725341797 0 -1
75.9000015258789 81 -10.50100040435791 0 -1
72.4000015258789 82.80000305175781 -10.812999725341797 0 -1
71.69999694824219 86.0999984741211 -11.579000473022461 0 -1
74.19999694824219 79.80000305175781 -10.538000106811523 0 -1
72.30000305175781 85.80000305175781 -11.815999984741211 0 -1
75.5 78 -8.968999862670898 0 -1
73.30000305175781 80.5999984741211 -10.807000160217285 0 -1
76.5 76.19999694824219 -8.484000205993652 0 -1
71.5 72.30000305175781 14.170000076293945 1 -1
79.19999694824219 89.69999694824219 -6.982999801635742 0 -1
78 83.69999694824219 -10.75100040435791 0 -1
72.69999694824219 74.5 19.13800048828125 1 -1
79.9000015258789 79.19999694824219 12.913000106811523 1 -1
71.5999984741211 81.5999984741211 -11.277000427246094 0 -1
75.0999984741211 76.4000015258789 -8.843000411987305 0 -1
75.5999984741211 87.69999694824219 -10.895000457763672 0 -1
76.19999694824219 79.5 -9.79800033569336 0 -1
77 82.4000015258789 -10.862000465393066 0 -1
73.19999694824219 84.0999984741211 -10.824999809265137 0 -1
72.69999694824219 81.0999984741211 -10.833999633789062 0 -1
75.0999984741211 76.30000305175781 -8.871999740600586 0 -1
79.9000015258789 77.5 12.946000099182129 1 -1
76.5999984741211 86 -11.277000427246094 0 -1
71.9000015258789 89 -11.506999969482422 0 -1
79.80000305175781 72.5999984741211 22.74799919128418 1 -1
74.9000015258789 87.19999694824219 -10.961999893188477 0 -1
72.4000015258789 82.69999694824219 -10.956999778747559 0 -1
73.9000015258789 76.4000015258789 -8.85200023651123 0 -1
76 88.5 -10.99899959564209 0 -1
74.80000305175781 88.4000015258789 -10.935999870300293 0 -1
73.69999694824219 82.69999694824219 -10.873000144958496 0 -1
77.80000305175781 71.69999694824219 22.332000732421875 1 -1
71.5 72.19999694824219 14.144000053405762 1 -1
79.69999694824219 81.69999694824219 12.838000297546387 1 -1
73.5999984741211 85.0999984741211 -10.859999656677246 0 -1
73 86.5 -11.586999893188477 0 -1
72.19999694824219 84 -10.642999649047852 0 -1
71.30000305175781 87.4000015258789 -11.628999710083008 0 -1
76.30000305175781 75.0999984741211 20.28700065612793 1 -1
74.19999694824219 79.69999694824219 -10.600000381469727 0 -1
79.80000305175781 90 12.5649995803833 1 -1
74.0999984741211 74.5 17.94499969482422 1 -1
79.4000015258789 79.4000015258789 -8.939000129699707 0 -1
74.5 75.69999694824219 -8.473999977111816 0 -1
76.9000015258789 73.9000015258789 22.83300018310547 1 -1
73.19999694824219 84.19999694824219 -10.798999786376953 0 -1
73.4000015258789 75.30000305175781 17.718000411987305 1 -1
72 73.19999694824219 17.709999084472656 1 -1
72.69999694824219 81.69999694824219 -10.77299976348877 0 -1
72 89.5 -11.208999633789062 0 -1
71.19999694824219 82.30000305175781 -11.48799991607666 0 -1
72 73.0999984741211 14.081999778747559 1 -1
77.19999694824219 81.5999984741211 -10.46500015258789 0 -1
78.5999984741211 87.0999984741211 -10.994000434875488 0 -1
73.5 86.19999694824219 -11.324000358581543 0 -1
80 80.5 12.887999534606934 1 -1
76.69999694824219 79.4000015258789 -9.354999542236328 0 -1
73.9000015258789 76.30000305175781 -8.763999938964844 0 -1
73 86.4000015258789 -11.774999618530273 0 -1
79.19999694824219 73.4000015258789 14.072999954223633 1 -1
79.5 81.4000015258789 -9.965999603271484 0 -1
71.4000015258789 84 -10.960000038146973 0 -1
71.0999984741211 79.69999694824219 -10.270999908447266 0 -1
76.19999694824219 79.69999694824219 -9.843999862670898 0 -1
75.9000015258789 73.80000305175781 17.82200050354004 1 -1
79.9000015258789 78.5 12.958000183105469 1 -1
72.0999984741211 79.4000015258789 -9.77400016784668 0 -1
71.30000305175781 71 14.211999893188477 1 -1
75.30000305175781 80.80000305175781 -10.597999572753906 0 -1
75.4000015258789 85.9000015258789 -10.984999656677246 0 -1
73.0999984741211 85.4000015258789 -11.295000076293945 0 -1
79.9000015258789 78.19999694824219 12.980999946594238 1 -1
79.4000015258789 76.30000305175781 12.984999656677246 1 -1
76.5 75.9000015258789 -8.753999710083008 0 -1
72.9000015258789 74.30000305175781 18.391000747680664 1 -1
76.4000015258789 74.19999694824219 23.400999069213867 1 -1
71.19999694824219 82.19999694824219 -11.45300006866455 0 -1
75.5999984741211 87.9000015258789 -10.843999862670898 0 -1
77 82.19999694824219 -11.352999687194824 0 -1
77.0999984741211 85.5999984741211 -10.392999649047852 0 -1
72.5999984741211 74.4000015258789 18.131000518798828 1 -1
79.69999694824219 80.69999694824219 12.800999641418457 1 -1
79.30000305175781 74.4000015258789 13.053999900817871 1 -1
79.80000305175781 89.19999694824219 12.60200023651123 1 -1
74.0999984741211 74.5999984741211 17.93600082397461 1 -1
75.69999694824219 76 -8.807999610900879 0 -1
72.0999984741211 79.30000305175781 -9.720000267028809 0 -1
76.5999984741211 85.9000015258789 -10.383000373840332 0 -1
76.0999984741211 83.9000015258789 -10.965999603271484 0 -1
75.5 78.0999984741211 -9.145000457763672 0 -1
76.30000305175781 74.9000015258789 20.28700065612793 1 -1
71.5 86.5999984741211 -11.57800006866455 0 -1
72.9000015258789 74.69999694824219 19.13800048828125 1 -1
77.30000305175781 80.19999694824219 -9.795000076293945 0 -1
78 83.5999984741211 -10.73799991607666 0 -1
79.69999694824219 81.0999984741211 12.779999732971191 1 -1
77.80000305175781 71.9000015258789 22.332000732421875 1 -1
77.69999694824219 71.5999984741211 22.052000045776367 1 -1
73.19999694824219 84 -10.904000282287598 0 -1
71.5 72.4000015258789 14.144000053405762 1 -1
75 86.0999984741211 -10.732999801635742 0 -1
74.69999694824219 81.5999984741211 -11.46399974822998 0 -1
73.69999694824219 82.80000305175781 -10.829999923706055 0 -1
73.4000015258789 75.5 20.302000045776367 1 -1
79.19999694824219 89.80000305175781 -6.810999870300293 0 -1
79.80000305175781 72.69999694824219 22.98900032043457 1 -1
74.80000305175781 88.80000305175781 -10.755000114440918 0 -1
75.4000015258789 85.5999984741211 -10.756999969482422 0 -1
75.9000015258789 81.30000305175781 -10.696000099182129 0 -1
74.80000305175781 72 18.149999618530273 1 -1
79.5999984741211 74 13.798999786376953 1 -1
76.5 75.80000305175781 -8.722999572753906 0 -1
78.4000015258789 78.80000305175781 -8.78499984741211 0 -1
75.30000305175781 80.5 -10.720999717712402 0 -1
74.30000305175781 82.5 -10.918000221252441 0 -1
77 82.30000305175781 -10.8100004196167 0 -1
78.5 87.5999984741211 -10.880999565124512 0 -1
72.5 79.4000015258789 -9.633999824523926 0 -1
79.4000015258789 76.4000015258789 12.932999610900879 1 -1
74.69999694824219 81.19999694824219 -11.215999603271484 0 -1
71.30000305175781 87.30000305175781 -11.619999885559082 0 -1
73.5999984741211 85 -10.831999778747559 0 -1
77.30000305175781 80.30000305175781 -9.83899974822998 0 -1
73.80000305175781 82.4000015258789 -10.972999572753906 0 -1
76.9000015258789 74.0999984741211 22.476999282836914 1 -1
71.69999694824219 87 -11.666000366210938 0 -1
75.9000015258789 81.4000015258789 -10.574999809265137 0 -1
73 71.69999694824219 14.123000144958496 1 -1
77.5999984741211 74.69999694824219 13.045999526977539 1 -1
80 75.19999694824219 13.10099983215332 1 -1
71 79.80000305175781 -10.270999908447266 0 -1
78.69999694824219 72.0999984741211 22.18899917602539 1 -1
71.9000015258789 88.0999984741211 -11.75100040435791 0 -1
71.30000305175781 87.80000305175781 -11.600000381469727 0 -1
73.30000305175781 80.5 -10.96399974822998 0 -1
76.69999694824219 79.5 -9.46500015258789 0 -1
72.30000305175781 85.19999694824219 -11.593000411987305 0 -1
78.69999694824219 86.19999694824219 -10.864999771118164 0 -1
78.5 71.30000305175781 22.06999969482422 1 -1
71.0999984741211 79.0999984741211 -9.619999885559082 0 -1
75.30000305175781 80.4000015258789 -10.684000015258789 0 -1
73.9000015258789 75.4000015258789 20.423999786376953 1 -1
79.80000305175781 89.0999984741211 12.543999671936035 1 -1
79.19999694824219 73.30000305175781 22.729000091552734 1 -1
79.80000305175781 72.5 22.98900032043457 1 -1
79.5 81.30000305175781 -9.98900032043457 0 -1
73.5999984741211 85.19999694824219 -10.831999778747559 0 -1
71.5 86.4000015258789 -11.562999725341797 0 -1
72.19999694824219 84.9000015258789 -10.963000297546387 0 -1
79.9000015258789 78.0999984741211 13.00100040435791 1 -1
78.5 88 -10.668999671936035 0 -1
79.5999984741211 74.19999694824219 13.071000099182129 1 -1
78.5999984741211 87.5 -10.96399974822998 0 -1
73 86.30000305175781 -11.75100040435791 0 -1
71.30000305175781 71.0999984741211 14.128000259399414 1 -1
78 83.80000305175781 -10.73799991607666 0 -1
78.5 71.4000015258789 22.06100082397461 1 -1
77.5999984741211 89.9000015258789 -8.784000396728516 0 -1
77.9000015258789 78.4000015258789 -8.392999649047852 0 -1
73.0999984741211 85.30000305175781 -11.29699993133545 0 -1
77.0999984741211 85.69999694824219 -10.350000381469727 0 -1
74.5 74.80000305175781 17.672000885009766 1 -1
72.69999694824219 73.9000015258789 22.13800048828125 1 -1
75.0999984741211 76.19999694824219 -8.843000411987305 0 -1
75.5999984741211 88 -10.817999839782715 0 -1
76 88.4000015258789 -10.994000434875488 0 -1
76.5999984741211 85.80000305175781 -10.333999633789062 0 -1
73 71.80000305175781 14.126999855041504 1 -1
72 89.5999984741211 -10.890000343322754 0 -1
75.5 78.19999694824219 -9.185999870300293 0 -1
71.5999984741211 81.19999694824219 -10.821000099182129 0 -1
72.80000305175781 78.5 -9.420000076293945 0 -1
73.30000305175781 80.4000015258789 -10.91100025177002 0 -1
76.5 76 -8.263999938964844 0 -1
77 82.0999984741211 -10.555000305175781 0 -1
72.4000015258789 82.0999984741211 -11.312000274658203 0 -1
71.69999694824219 86.80000305175781 -11.666000366210938 0 -1
72.5 79.5999984741211 -10.375 0 -1
74.19999694824219 79.0999984741211 -10.26200008392334 0 -1
76.30000305175781 75 20.05299949645996 1 -1
72.9000015258789 75.4000015258789 17.797000885009766 1 -1
75.19999694824219 79.30000305175781 -10.032999992370605 0 -1
71.5 86.5 -11.564000129699707 0 -1
71.4000015258789 84.9000015258789 -10.505999565124512 0 -1
79.0999984741211 74 14.04800033569336 1 -1
74.9000015258789 87.9000015258789 -11.315999984741211 0 -1
73.69999694824219 82.9000015258789 -10.873000144958496 0 -1
73.4000015258789 75.4000015258789 20.488000869750977 1 -1
77.5999984741211 89.80000305175781 -8.873000144958496 0 -1
74.80000305175781 72.0999984741211 19.136999130249023 1 -1
76.4000015258789 74.9000015258789 20.516000747680664 1 -1
71.9000015258789 88.30000305175781 -11.75100040435791 0 -1
72.69999694824219 73.80000305175781 21.81599998474121 1 -1
79.19999694824219 89.9000015258789 -6.691999912261963 0 -1
72.69999694824219 81.80000305175781 -10.776000022888184 0 -1
75.9000015258789 81.19999694824219 -10.50100040435791 0 -1
77.19999694824219 81.5 -10.515000343322754 0 -1
75.0999984741211 76.0999984741211 -8.67300033569336 0 -1
79.4000015258789 76.0999984741211 -8.949999809265137 0 -1
78.69999694824219 72.30000305175781 22.187999725341797 1 -1
72.4000015258789 82 -11.302000045776367 0 -1
72 73 14.090999603271484 1 -1
79.80000305175781 89.9000015258789 12.562999725341797 1 -1
74.19999694824219 79 -10.041999816894531 0 -1
75 87 -11.204000473022461 0 -1
72 89.69999694824219 -10.984000205993652 0 -1
72.9000015258789 75.5 17.78499984741211 1 -1
73.5 86.0999984741211 -11.781999588012695 0 -1
72.30000305175781 85 -10.602999687194824 0 -1
72.5999984741211 74.30000305175781 18.020000457763672 1 -1
75.30000305175781 80.5999984741211 -10.758999824523926 0 -1
76.9000015258789 74 22.655000686645508 1 -1
73.9000015258789 76.19999694824219 -8.793999671936035 0 -1
71.80000305175781 78 -9.506999969482422 0 -1
78.5999984741211 73.5 22.600000381469727 1 -1
71.30000305175781 87.69999694824219 -11.60099983215332 0 -1
79.9000015258789 78.4000015258789 12.982000350952148 1 -1
73.19999694824219 84.9000015258789 -10.939000129699707 0 -1
72.69999694824219 81.9000015258789 -10.920999526977539 0 -1
75.69999694824219 75.9000015258789 -8.755000114440918 0 -1
76.4000015258789 75 20.152000427246094 1 -1
79.9000015258789 78.30000305175781 12.980999946594238 1 -1
71.9000015258789 88.19999694824219 -11.739999771118164 0 -1
76.4000015258789 74.0999984741211 23.399999618530273 1 -1
79.80000305175781 89.30000305175781 12.543999671936035 1 -1
74.5 75 -8.201000213623047 0 -1
76.30000305175781 74.80000305175781 20.516000747680664 1 -1
76 87.69999694824219 -10.83899974822998 0 -1
72.9000015258789 74.5999984741211 19.607999801635742 1 -1
71.0999984741211 79 -9.6850004196167 0 -1
77.80000305175781 72.5 17.58099937438965 1 -1
72 72.9000015258789 14.041000366210938 1 -1
72.0999984741211 79.19999694824219 -9.77400016784668 0 -1
71 79.4000015258789 -9.909000396728516 0 -1
71.19999694824219 82.5999984741211 -10.996999740600586 0 -1
71.5999984741211 81.4000015258789 -10.925000190734863 0 -1
78.4000015258789 78.4000015258789 -8.508999824523926 0 -1
72.19999694824219 84.80000305175781 -10.940999984741211 0 -1
77.30000305175781 79.4000015258789 -9.368000030517578 0 -1
78.5999984741211 87.4000015258789 -10.92300033569336 0 -1
73.9000015258789 76.0999984741211 -8.76200008392334 0 -1
79.69999694824219 81 12.82800006866455 1 -1
79.5 81.19999694824219 -9.942000389099121 0 -1
74.80000305175781 88.69999694824219 -10.805999755859375 0 -1
79.19999694824219 73.19999694824219 22.68199920654297 1 -1
71.5 86.30000305175781 -11.564000129699707 0 -1
75.4000015258789 85.69999694824219 -10.696999549865723 0 -1
74.30000305175781 82.5999984741211 -10.835000038146973 0 -1
76.69999694824219 79.5999984741211 -9.413999557495117 0 -1
77.5999984741211 73.80000305175781 22.312999725341797 1 -1
79.19999694824219 90 -6.576000213623047 0 -1
80 75.0999984741211 13.072999954223633 1 -1
72.5 79.5 -10.529999732971191 0 -1
79.4000015258789 76.5 12.984999656677246 1 -1
75.5 78.30000305175781 -9.145000457763672 0 -1
74.69999694824219 81.30000305175781 -11.402000427246094 0 -1
76.19999694824219 79.80000305175781 -9.805999755859375 0 -1
76.4000015258789 74 23.400999069213867 1 -1
73.4000015258789 75.0999984741211 17.718000411987305 1 -1
74.80000305175781 71.69999694824219 17.604999542236328 1 -1
78.5 87.9000015258789 -10.704000473022461 0 -1
71.69999694824219 86.9000015258789 -11.656000137329102 0 -1
79.69999694824219 80.9000015258789 12.836000442504883 1 -1
71.19999694824219 82.5 -11.48799991607666 0 -1
75.19999694824219 79.19999694824219 -9.944000244140625 0 -1
77.9000015258789 78.80000305175781 -8.918999671936035 0 -1
73.0999984741211 85.69999694824219 -11.581000328063965 0 -1
75 86.80000305175781 -11.13700008392334 0 -1
77.0999984741211 84.30000305175781 -10.527999877929688 0 -1
72.9000015258789 74.5 19.13800048828125 1 -1
73.80000305175781 82.5 -10.932999610900879 0 -1
78.4000015258789 78.5 -8.508999824523926 0 -1
75.9000015258789 73.9000015258789 17.84000015258789 1 -1
76.69999694824219 78.0999984741211 -8.79699993133545 0 -1
77.5999984741211 73.9000015258789 22.031999588012695 1 -1
74.69999694824219 81.4000015258789 -11.46399974822998 0 -1
74.9000015258789 88 -11.305999755859375 0 -1
78.69999694824219 72.19999694824219 22.17300033569336 1 -1
79.5999984741211 73.80000305175781 13.916000366210938 1 -1
72.30000305175781 85.0999984741211 -10.555000305175781 0 -1
73.80000305175781 82.5999984741211 -10.892999649047852 0 -1
78.69999694824219 86.0999984741211 -10.743000030517578 0 -1
72.69999694824219 74.19999694824219 18.073999404907227 1 -1
76.0999984741211 83.80000305175781 -10.968999862670898 0 -1
77.80000305175781 72.69999694824219 17.56100082397461 1 -1
71.9000015258789 88.4000015258789 -11.654999732971191 0 -1
75 86.9000015258789 -11.170999526977539 0 -1
79.80000305175781 72.4000015258789 22.264999389648438 1 -1
73.69999694824219 82 -11.513999938964844 0 -1
71.5 72.5 14.154999732971191 1 -1
74.5 74.9000015258789 17.538999557495117 1 -1
79.19999694824219 73.0999984741211 22.729000091552734 1 -1
71.30000305175781 87.5999984741211 -11.602999687194824 0 -1
73.30000305175781 80.30000305175781 -10.96399974822998 0 -1
72.30000305175781 85.4000015258789 -11.593000411987305 0 -1
78 83.9000015258789 -10.847999572753906 0 -1
75.69999694824219 75.80000305175781 -8.618000030517578 0 -1
74.0999984741211 75.30000305175781 20.68400001525879 1 -1
78.5999984741211 73.5999984741211 22.408000946044922 1 -1
73 71.9000015258789 14.123000144958496 1 -1
76.5999984741211 82.0999984741211 -10.781999588012695 0 -1
77.19999694824219 78.30000305175781 -8.708999633789062 0 -1
71.69999694824219 86.69999694824219 -11.656000137329102 0 -1
76.0999984741211 82.0999984741211 -10.571999549865723 0 -1
74.9000015258789 71.0999984741211 14.11299991607666 1 -1
71 79.5999984741211 -10.270999908447266 0 -1
73.5 87 -11.416999816894531 0 -1
76.19999694824219 75.9000015258789 -8.642000198364258 0 -1
73 86.69999694824219 -11.586999893188477 0 -1
80 74.9000015258789 12.77400016784668 1 -1
72.5 79.69999694824219 -10.661999702453613 0 -1
78.5 71 21.98200035095215 1 -1
73.5999984741211 85.80000305175781 -11.682000160217285 0 -1
71.5999984741211 81.30000305175781 -10.817000389099121 0 -1
76 87.80000305175781 -10.821999549865723 0 -1
75.69999694824219 77.80000305175781 -8.958999633789062 0 -1
71.4000015258789 84.80000305175781 -10.444999694824219 0 -1
71.0999984741211 78.9000015258789 -9.619999885559082 0 -1
74.80000305175781 88.5999984741211 -10.755000114440918 0 -1
71 79.5 -9.977999687194824 0 -1
77.9000015258789 78.5999984741211 -8.682999610900879 0 -1
77.5999984741211 89.69999694824219 -8.784000396728516 0 -1
79.69999694824219 81.5 12.845999717712402 1 -1
74.30000305175781 82.80000305175781 -10.835000038146973 0 -1
72.4000015258789 82.4000015258789 -11.125 0 -1
79.5 81.0999984741211 -9.894000053405762 0 -1
71.5 86.19999694824219 -11.562999725341797 0 -1
76.30000305175781 75.30000305175781 19.819000244140625 1 -1
72.19999694824219 84.69999694824219 -10.963000297546387 0 -1
78.5999984741211 87.30000305175781 -10.96399974822998 0 -1
72.5999984741211 74.69999694824219 18.198999404907227 1 -1
75 86.69999694824219 -11.102999687194824 0 -1
71.5999984741211 81 -10.991000175476074 0 -1
73.30000305175781 80.19999694824219 -10.91100025177002 0 -1
72.0999984741211 79.0999984741211 -9.720000267028809 0 -1
78.9000015258789 75.9000015258789 -8.824999809265137 0 -1
79.4000015258789 76 -8.901000022888184 0 -1
76.19999694824219 75.80000305175781 -8.675999641418457 0 -1
75.19999694824219 79 -9.944000244140625 0 -1
73 86.5999984741211 -11.579000473022461 0 -1
74.80000305175781 71.80000305175781 18.149999618530273 1 -1
79.9000015258789 78.80000305175781 12.982999801635742 1 -1
75.0999984741211 76 -8.713000297546387 0 -1
76.5 77.5999984741211 -8.782999992370605 0 -1
73.4000015258789 74.9000015258789 17.84600067138672 1 -1
78.69999694824219 72.4000015258789 17.47599983215332 1 -1
79.9000015258789 77.9000015258789 13.00100040435791 1 -1
78.69999694824219 90 -7.191999912261963 0 -1
79.80000305175781 89.80000305175781 12.54800033569336 1 -1
78.5 71.0999984741211 22.016000747680664 1 -1
72 89.80000305175781 -10.746000289916992 0 -1
79.0999984741211 73.9000015258789 14.055000305175781 1 -1
77.5999984741211 89.5999984741211 -8.873000144958496 0 -1
77.9000015258789 78.69999694824219 -8.859999656677246 0 -1
73.0999984741211 85.5999984741211 -11.630000114440918 0 -1
73.5999984741211 86 -11.781999588012695 0 -1
71.80000305175781 78.0999984741211 -9.54800033569336 0 -1
74.19999694824219 78.9000015258789 -10.1899995803833 0 -1
75.4000015258789 84.30000305175781 -11.444000244140625 0 -1
75.5 79.4000015258789 -9.998000144958496 0 -1
75.80000305175781 81.5 -10.574999809265137 0 -1
76.69999694824219 78.19999694824219 -8.857999801635742 0 -1
72.9000015258789 75 18.496999740600586 1 -1
78.5999984741211 88.80000305175781 -8.284000396728516 0 -1
79.80000305175781 89.4000015258789 12.569999694824219 1 -1
71.19999694824219 82.9000015258789 -10.894000053405762 0 -1
73.4000015258789 75.19999694824219 17.75 1 -1
73 73.5 22.381000518798828 1 -1
71.5 72.69999694824219 14.119999885559082 1 -1
74.5 75.0999984741211 -8.329000473022461 0 -1
75.5999984741211 84 -10.980999946594238 0 -1
72.0999984741211 79 -9.555999755859375 0 -1
76 87.5999984741211 -10.890999794006348 0 -1
79.69999694824219 81.4000015258789 12.842000007629395 1 -1
74.19999694824219 79.30000305175781 -10.26200008392334 0 -1
75.19999694824219 79.0999984741211 -9.854999542236328 0 -1
77 82 -10.586999893188477 0 -1
71.80000305175781 78.19999694824219 -9.506999969482422 0 -1
72.69999694824219 81.5 -10.991999626159668 0 -1
79.0999984741211 73.80000305175781 14.062999725341797 1 -1
73.5 73.30000305175781 18.448999404907227 1 -1
77.30000305175781 79.5 -9.42199993133545 0 -1
74.9000015258789 87.5999984741211 -11.282999992370605 0 -1
79.80000305175781 72.19999694824219 22.264999389648438 1 -1
73.5 86.80000305175781 -11.239999771118164 0 -1
79.9000015258789 78.5999984741211 12.947999954223633 1 -1
72 72.80000305175781 14.152000427246094 1 -1
74.0999984741211 75.4000015258789 20.423999786376953 1 -1
72 89.9000015258789 -10.614999771118164 0 -1
74.69999694824219 80.9000015258789 -10.960000038146973 0 -1
73.69999694824219 82.0999984741211 -11.220000267028809 0 -1
76.30000305175781 75.5 -8.579999923706055 0 -1
73.9000015258789 76 -8.711000442504883 0 -1
72.30000305175781 85.5 -11.767000198364258 0 -1
77.80000305175781 72.5999984741211 17.558000564575195 1 -1
79.69999694824219 81.30000305175781 12.845999717712402 1 -1
74.30000305175781 82.69999694824219 -10.772000312805176 0 -1
78.5999984741211 73.69999694824219 14.057000160217285 1 -1
71.5 72.5999984741211 14.128000259399414 1 -1
76.5999984741211 82 -10.744999885559082 0 -1
79.19999694824219 73 22.68199920654297 1 -1
71.0999984741211 79.30000305175781 -9.878000259399414 0 -1
74.9000015258789 71 14.119000434875488 1 -1
78 84 -10.819000244140625 0 -1
75.69999694824219 77.69999694824219 -8.911999702453613 0 -1
74.80000305175781 89 -10.354999542236328 0 -1
72.5 75.80000305175781 19.18199920654297 1 -1
80 75 11.982000350952148 1 -1
77.80000305175781 72.30000305175781 17.19700050354004 1 -1
72.9000015258789 74.9000015258789 18.711000442504883 1 -1
72.5999984741211 74.5 18.020000457763672 1 -1
79.80000305175781 89.5999984741211 12.569999694824219 1 -1
75.30000305175781 81.19999694824219 -10.967000007629395 0 -1
71.30000305175781 88 -11.600000381469727 0 -1
74.69999694824219 81 -11.003999710083008 0 -1
76.5 77.80000305175781 -8.782999992370605 0 -1
79.30000305175781 74 14.04800033569336 1 -1
73.19999694824219 84.80000305175781 -10.958999633789062 0 -1
79.19999694824219 88.0999984741211 -10.708000183105469 0 -1
75.9000015258789 74.69999694824219 20.974000930786133 1 -1
71 79.19999694824219 -9.909000396728516 0 -1
72.19999694824219 84.5999984741211 -10.940999984741211 0 -1
77.30000305175781 79.5999984741211 -9.368000030517578 0 -1
71.4000015258789 84.69999694824219 -10.63599967956543 0 -1
71.5999984741211 80.9000015258789 -10.984000205993652 0 -1
79.5 81 -9.847000122070312 0 -1
75.19999694824219 78.9000015258789 -9.675999641418457 0 -1
74.80000305175781 71.9000015258789 18.43600082397461 1 -1
76.5 77.69999694824219 -8.82699966430664 0 -1
78.9000015258789 75.80000305175781 -8.829999923706055 0 -1
72.69999694824219 74.0999984741211 22.13800048828125 1 -1
75.5999984741211 84.19999694824219 -10.704999923706055 0 -1
73.80000305175781 82.69999694824219 -10.932999610900879 0 -1
78.9000015258789 76 -8.829999923706055 0 -1
79.4000015258789 75.9000015258789 -8.949999809265137 0 -1
77 81.80000305175781 -10.586999893188477 0 -1
78.4000015258789 79.19999694824219 -8.876999855041504 0 -1
75.5 79.5 -10.086999893188477 0 -1
73.4000015258789 75 17.826000213623047 1 -1
73 87 -11.723999977111816 0 -1
76.69999694824219 78.30000305175781 -8.79699993133545 0 -1
77.5999984741211 74 21.750999450683594 1 -1
76.19999694824219 76 -8.741999626159668 0 -1
77.19999694824219 78.19999694824219 -8.66100025177002 0 -1
73.0999984741211 86 -11.824000358581543 0 -1
72.30000305175781 85.30000305175781 -11.550000190734863 0 -1
73.80000305175781 82.80000305175781 -10.892999649047852 0 -1
72.69999694824219 74 22.27400016784668 1 -1
71.69999694824219 86.5999984741211 -11.626999855041504 0 -1
71.5 72.80000305175781 14.11299991607666 1 -1
78.5999984741211 88.69999694824219 -8.770000457763672 0 -1
75.5999984741211 84.0999984741211 -10.9399995803833 0 -1
78 84.19999694824219 -10.782999992370605 0 -1
79.80000305175781 72.30000305175781 22.202999114990234 1 -1
79.69999694824219 81.5999984741211 12.85099983215332 1 -1
79.4000015258789 75.80000305175781 -8.901000022888184 0 -1
74.9000015258789 87.69999694824219 -11.305000305175781 0 -1
79.9000015258789 78.69999694824219 12.944999694824219 1 -1
75.0999984741211 75.9000015258789 -8.67300033569336 0 -1
73.5 86.9000015258789 -11.220999717712402 0 -1
75.80000305175781 81.5999984741211 -10.605999946594238 0 -1
77.69999694824219 71 17.68199920654297 1 -1
78.5 86.19999694824219 -10.904999732971191 0 -1
80 74.80000305175781 12.833999633789062 1 -1
76.5999984741211 82.4000015258789 -10.97599983215332 0 -1
73 73.5999984741211 22.000999450683594 1 -1
74.0999984741211 74.0999984741211 18.927000045776367 1 -1
75.30000305175781 81.4000015258789 -10.967000007629395 0 -1
73.5999984741211 85.9000015258789 -11.732000350952148 0 -1
77.0999984741211 84.4000015258789 -10.3100004196167 0 -1
79.9000015258789 78 12.989999771118164 1 -1
74.30000305175781 82.9000015258789 -10.644000053405762 0 -1
73.30000305175781 80.0999984741211 -10.753999710083008 0 -1
77.5999984741211 74.0999984741211 14.026000022888184 1 -1
77 81.9000015258789 -10.543999671936035 0 -1
72.4000015258789 82.30000305175781 -11.08899974822998 0 -1
78.80000305175781 75.69999694824219 -8.819999694824219 0 -1
72.5 79.80000305175781 -10.767000198364258 0 -1
76.30000305175781 75.4000015258789 -8.550999641418457 0 -1
72.5999984741211 74.5999984741211 18.131000518798828 1 -1
79.69999694824219 81.19999694824219 12.842000007629395 1 -1
73.9000015258789 75.9000015258789 -8.76200008392334 0 -1
76.80000305175781 77.80000305175781 -8.496000289916992 0 -1
74.80000305175781 88.9000015258789 -10.592000007629395 0 -1
73.69999694824219 82.19999694824219 -11.090999603271484 0 -1
78.30000305175781 89.9000015258789 -7.559000015258789 0 -1
78.5 86.0999984741211 -10.83899974822998 0 -1
74.80000305175781 73.5 18.242000579833984 1 -1
79.80000305175781 89.69999694824219 12.559000015258789 1 -1
79.5999984741211 73.9000015258789 13.857000350952148 1 -1
79.19999694824219 72.9000015258789 22.764999389648438 1 -1
75.30000305175781 81.30000305175781 -10.913999557495117 0 -1
71.4000015258789 84.5 -10.63599967956543 0 -1
71.0999984741211 79.19999694824219 -9.9399995803833 0 -1
73.5999984741211 85.5999984741211 -11.449999809265137 0 -1
71.5999984741211 81.0999984741211 -10.984000205993652 0 -1
72.69999694824219 81.5999984741211 -10.770000457763672 0 -1
75.69999694824219 77.5999984741211 -8.86400032043457 0 -1
72.5 75.9000015258789 19.773000717163086 1 -1
77.80000305175781 72.19999694824219 17.37700080871582 1 -1
73 73.69999694824219 22.381000518798828 1 -1
75.4000015258789 84.4000015258789 -10.765000343322754 0 -1
78.5999984741211 73.30000305175781 22.600000381469727 1 -1
74.0999984741211 74 19.07200050354004 1 -1
77.9000015258789 85.19999694824219 -10.472999572753906 0 -1
73.4000015258789 74.80000305175781 17.826000213623047 1 -1
74.5 75.19999694824219 -8.366000175476074 0 -1
79.0999984741211 74.69999694824219 13.111000061035156 1 -1
75.0999984741211 75.80000305175781 -8.553999900817871 0 -1
78.80000305175781 75.5999984741211 -8.8149995803833 0 -1
72.4000015258789 82.19999694824219 -11.302000045776367 0 -1
78.69999694824219 89.9000015258789 -7.307000160217285 0 -1
71.9000015258789 88.5 -11.574000358581543 0 -1
73.5 86.69999694824219 -11.220999717712402 0 -1
71.19999694824219 82.80000305175781 -10.996999740600586 0 -1
72 90 -10.482999801635742 0 -1
72.0999984741211 78.9000015258789 -9.611000061035156 0 -1
73.30000305175781 80 -10.807000160217285 0 -1
79.19999694824219 88.19999694824219 -10.654999732971191 0 -1
79.80000305175781 89.5 12.559000015258789 1 -1
71 79.30000305175781 -9.977999687194824 0 -1
76.9000015258789 74.4000015258789 13.032999992370605 1 -1
73.9000015258789 75.80000305175781 -8.54800033569336 0 -1
71.30000305175781 87.9000015258789 -11.60099983215332 0 -1
71.30000305175781 72.5 14.130999565124512 1 -1
74.19999694824219 79.19999694824219 -10.335000038146973 0 -1
79.80000305175781 72.0999984741211 22.21299934387207 1 -1
79.5 80.9000015258789 -9.798999786376953 0 -1
72.19999694824219 84.5 -10.87399959564209 0 -1
76.0999984741211 82 -10.579999923706055 0 -1
71.80000305175781 78.30000305175781 -9.630000114440918 0 -1
75.5 79.5999984741211 -10.097999572753906 0 -1
75.5999984741211 84.30000305175781 -10.76200008392334 0 -1
76.30000305175781 75.5999984741211 -8.550999641418457 0 -1
73.5 73.4000015258789 22.277999877929688 1 -1
76 88 -10.821999549865723 0 -1
71.69999694824219 85.4000015258789 -11.637999534606934 0 -1
72.4000015258789 73 17.80500030517578 1 -1
79 74.80000305175781 13.017000198364258 1 -1
71.80000305175781 79.4000015258789 -10.388999938964844 0 -1
79.5 81.9000015258789 -10.050000190734863 0 -1
75 86.5999984741211 -11.324000358581543 0 -1
77 81.69999694824219 -10.543999671936035 0 -1
72.19999694824219 85.5 -11.64900016784668 0 -1
72.0999984741211 78.80000305175781 -9.555999755859375 0 -1
79.30000305175781 73.9000015258789 14.074000358581543 1 -1
76.19999694824219 76.0999984741211 -8.708999633789062 0 -1
71.5 86.0999984741211 -11.5600004196167 0 -1
72.9000015258789 74.80000305175781 19.607999801635742 1 -1
78.5999984741211 88.5999984741211 -9.697999954223633 0 -1
73.0999984741211 85.9000015258789 -11.774999618530273 0 -1
76.69999694824219 77.9000015258789 -8.538000106811523 0 -1
79.5999984741211 74.5999984741211 13.031000137329102 1 -1
78 84.0999984741211 -10.800999641418457 0 -1
72.19999694824219 71.19999694824219 14.140999794006348 1 -1
76.4000015258789 74.69999694824219 21.025999069213867 1 -1
71.5 72.9000015258789 14.116999626159668 1 -1
74.69999694824219 81.0999984741211 -11.277999877929688 0 -1
75.80000305175781 81.69999694824219 -10.616000175476074 0 -1
77.69999694824219 71.0999984741211 18.06800079345703 1 -1
77.80000305175781 72.4000015258789 17.569000244140625 1 -1
73.19999694824219 84.69999694824219 -10.939000129699707 0 -1
72.9000015258789 75.19999694824219 17.797000885009766 1 -1
71.19999694824219 82.69999694824219 -10.958999633789062 0 -1
77.9000015258789 85 -10.682000160217285 0 -1
77.30000305175781 79.69999694824219 -9.42199993133545 0 -1
74.9000015258789 87.80000305175781 -11.305999755859375 0 -1
71.4000015258789 84.5999984741211 -10.694999694824219 0 -1
76.9000015258789 74.5999984741211 13.020999908447266 1 -1
78.69999694824219 72.69999694824219 14.079000473022461 1 -1
76.80000305175781 77.69999694824219 -8.517000198364258 0 -1
79.30000305175781 73.80000305175781 21.83300018310547 1 -1
73.69999694824219 82.30000305175781 -10.994999885559082 0 -1
72.5999984741211 81.0999984741211 -10.895000457763672 0 -1
74.5 76.4000015258789 -8.892999649047852 0 -1
75.0999984741211 77.80000305175781 -8.961999893188477 0 -1
79.19999694824219 72.80000305175781 14.095999717712402 1 -1
74.4000015258789 75.9000015258789 -8.616000175476074 0 -1
80 75.69999694824219 12.987000465393066 1 -1
79.5999984741211 74.5 13.041000366210938 1 -1
72.4000015258789 83.69999694824219 -10.90999984741211 0 -1
77.9000015258789 85.0999984741211 -10.652000427246094 0 -1
75 71.19999694824219 14.135000228881836 1 -1
71.30000305175781 72.5999984741211 14.149999618530273 1 -1
78.4000015258789 79.30000305175781 -8.92300033569336 0 -1
71.4000015258789 85.4000015258789 -11.46500015258789 0 -1
78.5999984741211 73.4000015258789 22.408000946044922 1 -1
72.30000305175781 84.69999694824219 -10.940999984741211 0 -1
71.9000015258789 83.5 -10.821000099182129 0 -1
76.5999984741211 82.30000305175781 -10.781999588012695 0 -1
78.30000305175781 90 -7.48799991607666 0 -1
79.19999694824219 88.30000305175781 -10.602999687194824 0 -1
75.30000305175781 81 -10.913000106811523 0 -1
73 86.9000015258789 -11.682000160217285 0 -1
77.0999984741211 84 -10.586000442504883 0 -1
77.30000305175781 79.80000305175781 -9.57800006866455 0 -1
75.0999984741211 77.69999694824219 -8.937999725341797 0 -1
74.4000015258789 75.80000305175781 -8.661999702453613 0 -1
71.5 90 -9.78600025177002 0 -1
73.80000305175781 82.9000015258789 -10.829999923706055 0 -1
78.4000015258789 78.9000015258789 -8.73900032043457 0 -1
74 76.30000305175781 -8.793999671936035 0 -1
72.4000015258789 83.5999984741211 -10.829000473022461 0 -1
73.19999694824219 84.5 -10.979000091552734 0 -1
75.5 79.69999694824219 -10.03600025177002 0 -1
72 88.0999984741211 -11.649999618530273 0 -1
78 84.30000305175781 -10.763999938964844 0 -1
75 89.5 -9.175999641418457 0 -1
74.69999694824219 78.5999984741211 -9.138999938964844 0 -1
74.30000305175781 83 -10.579999923706055 0 -1
77.5999984741211 74.19999694824219 20.792999267578125 1 -1
71.69999694824219 85.5 -11.609999656677246 0 -1
75.30000305175781 80.9000015258789 -10.595999717712402 0 -1
76.0999984741211 82.4000015258789 -10.902000427246094 0 -1
72.19999694824219 85.4000015258789 -11.713000297546387 0 -1
75.69999694824219 77.5 -8.911999702453613 0 -1
74.80000305175781 87.19999694824219 -11.303999900817871 0 -1
75.4000015258789 84 -11.696999549865723 0 -1
75.19999694824219 78.80000305175781 -9.46399974822998 0 -1
73 86.80000305175781 -11.579000473022461 0 -1
74.80000305175781 73.5999984741211 18.493000030517578 1 -1
72.5 76 -8.824000358581543 0 -1
79.5 81.80000305175781 -10.022000312805176 0 -1
79.5999984741211 74.69999694824219 13.020999908447266 1 -1
72.19999694824219 71.30000305175781 14.130999565124512 1 -1
75.80000305175781 81.80000305175781 -10.605999946594238 0 -1
74.19999694824219 85.69999694824219 -11.034000396728516 0 -1
72.5999984741211 80.9000015258789 -10.809000015258789 0 -1
73.5999984741211 85.69999694824219 -11.461000442504883 0 -1
73.0999984741211 85.80000305175781 -11.72700023651123 0 -1
79.0999984741211 74.5999984741211 13.053999900817871 1 -1
74.69999694824219 78.69999694824219 -9.548999786376953 0 -1
73.19999694824219 84.5999984741211 -10.958999633789062 0 -1
73.30000305175781 79.9000015258789 -10.984000205993652 0 -1
74.9000015258789 88.4000015258789 -10.82699966430664 0 -1
78.5 86.5 -10.970999717712402 0 -1
76 87.9000015258789 -10.83899974822998 0 -1
78.5999984741211 89 -8.284000396728516 0 -1
76.80000305175781 77.5999984741211 -8.496000289916992 0 -1
78.69999694824219 89.80000305175781 -7.4019999504089355 0 -1
73.5 86.5999984741211 -11.239999771118164 0 -1
73 73.30000305175781 19.11199951171875 1 -1
77.0999984741211 84.19999694824219 -10.586000442504883 0 -1
78.30000305175781 73.9000015258789 14.072999954223633 1 -1
78.69999694824219 72.80000305175781 14.060999870300293 1 -1
75 71.4000015258789 14.149999618530273 1 -1
71.0999984741211 78.5 -9.788999557495117 0 -1
76.69999694824219 78 -8.559000015258789 0 -1
79.19999694824219 88.4000015258789 -10.142000198364258 0 -1
72.30000305175781 84.5 -10.897000312805176 0 -1
74.0999984741211 75.5 -8.512999534606934 0 -1
73.9000015258789 75.69999694824219 -8.512999534606934 0 -1
71.19999694824219 83.0999984741211 -10.791000366210938 0 -1
71.30000305175781 86.19999694824219 -11.654000282287598 0 -1
76.9000015258789 74.5 13.041999816894531 1 -1
77.9000015258789 85.4000015258789 -10.366000175476074 0 -1
79.80000305175781 72 22.184999465942383 1 -1
79.0999984741211 74.5 13.111000061035156 1 -1
78.30000305175781 89.69999694824219 -7.53000020980835 0 -1
74 87.5999984741211 -11.947999954223633 0 -1
71.69999694824219 85.30000305175781 -11.609999656677246 0 -1
76.30000305175781 75.69999694824219 -8.579999923706055 0 -1
75 71.30000305175781 14.144000053405762 1 -1
71.9000015258789 83.69999694824219 -10.821000099182129 0 -1
74.0999984741211 73.80000305175781 19.36199951171875 1 -1
75.4000015258789 84.19999694824219 -10.935999870300293 0 -1
72.4000015258789 73.0999984741211 17.83099937438965 1 -1
74.5 76.30000305175781 -8.857999801635742 0 -1
79 74.9000015258789 13.003000259399414 1 -1
73.5 73.5 22.795000076293945 1 -1
78.0999984741211 72 17.270999908447266 1 -1
76.5999984741211 82.19999694824219 -10.744999885559082 0 -1
78.5 86.4000015258789 -10.904999732971191 0 -1
71.30000305175781 72.69999694824219 14.154000282287598 1 -1
75.30000305175781 81.0999984741211 -10.913999557495117 0 -1
71.4000015258789 85.5 -11.460000038146973 0 -1
72.9000015258789 75.0999984741211 17.54400062561035 1 -1
77.0999984741211 84.0999984741211 -10.527999877929688 0 -1
71.80000305175781 79.5 -10.520999908447266 0 -1
74.0999984741211 88.80000305175781 -10.774999618530273 0 -1
77.9000015258789 85.5 -10.312000274658203 0 -1
73 89.30000305175781 -10.02299976348877 0 -1
71.30000305175781 72.19999694824219 14.14900016784668 1 -1
73 73.4000015258789 22.000999450683594 1 -1
74.19999694824219 78.5 -9.675999641418457 0 -1
73.9000015258789 75.5999984741211 -8.54800033569336 0 -1
75.5 79.80000305175781 -10.220000267028809 0 -1
71.5 89.9000015258789 -9.949000358581543 0 -1
73.69999694824219 82.4000015258789 -10.944999694824219 0 -1
75.9000015258789 74.5999984741211 -8.192000389099121 0 -1
74 76.4000015258789 -8.822999954223633 0 -1
75 89.4000015258789 -9.418000221252441 0 -1
74.4000015258789 76 -8.753999710083008 0 -1
76.4000015258789 74.5999984741211 20.770999908447266 1 -1
78.30000305175781 89.5999984741211 -7.6579999923706055 0 -1
76.0999984741211 82.19999694824219 -10.579999923706055 0 -1
72.4000015258789 73.19999694824219 18.285999298095703 1 -1
75.19999694824219 78.5999984741211 -8.986000061035156 0 -1
77.30000305175781 78.9000015258789 -9.045999526977539 0 -1
71.9000015258789 83.5999984741211 -10.831000328063965 0 -1
74.80000305175781 73.69999694824219 18.016000747680664 1 -1
72.5999984741211 81 -10.833999633789062 0 -1
74.5 76.5 -8.857999801635742 0 -1
76.9000015258789 74.69999694824219 20.243999481201172 1 -1
73.5 73.69999694824219 22.891000747680664 1 -1
78.69999694824219 89.5999984741211 -7.5920000076293945 0 -1
75.69999694824219 77.4000015258789 -8.86400032043457 0 -1
78.5999984741211 72 22.051000595092773 1 -1
74.19999694824219 78.4000015258789 -9.805000305175781 0 -1
79.5 81.69999694824219 -9.994000434875488 0 -1
72.19999694824219 85.30000305175781 -11.64900016784668 0 -1
75.80000305175781 81.9000015258789 -10.616000175476074 0 -1
76.69999694824219 78.5999984741211 -8.977999687194824 0 -1
74.9000015258789 88.5 -10.765000343322754 0 -1
76.0999984741211 82.30000305175781 -10.843000411987305 0 -1
80 75.5999984741211 13.008999824523926 1 -1
72.19999694824219 71.4000015258789 14.156000137329102 1 -1
76.4000015258789 74.5 21.025999069213867 1 -1
71.80000305175781 79.5999984741211 -10.388999938964844 0 -1
75.5999984741211 84.4000015258789 -10.704999923706055 0 -1
76.19999694824219 76.19999694824219 -8.741999626159668 0 -1
76 87.19999694824219 -10.977999687194824 0 -1
71.30000305175781 86.0999984741211 -11.677000045776367 0 -1
75.19999694824219 78.69999694824219 -9.406000137329102 0 -1
77 81.5999984741211 -10.414999961853027 0 -1
75 71.5 14.090999603271484 1 -1
73.0999984741211 82.0999984741211 -11.265999794006348 0 -1
72.30000305175781 84.5999984741211 -10.918999671936035 0 -1
78.5999984741211 88.9000015258789 -8.515999794006348 0 -1
74.5999984741211 74.19999694824219 18.045000076293945 1 -1
77.0999984741211 84.80000305175781 -10.685999870300293 0 -1
71.4000015258789 85.30000305175781 -10.972999572753906 0 -1
71.0999984741211 78.4000015258789 -9.73900032043457 0 -1
73.4000015258789 76.5999984741211 -8.930000305175781 0 -1
78.30000305175781 89.80000305175781 -7.630000114440918 0 -1
72.4000015258789 83.5 -10.855999946594238 0 -1
76.5999984741211 82.5999984741211 -11.09000015258789 0 -1
79.19999694824219 88.5 -10.630000114440918 0 -1
77.9000015258789 85.30000305175781 -10.420000076293945 0 -1
78.4000015258789 79 -8.876999855041504 0 -1
74.30000305175781 83.0999984741211 -10.644000053405762 0 -1
73.69999694824219 83.5 -10.918999671936035 0 -1
71.5 73 14.11299991607666 1 -1
74 87.69999694824219 -11.699999809265137 0 -1
71.9000015258789 83.80000305175781 -11.154000282287598 0 -1
72 88.19999694824219 -11.647000312805176 0 -1
73.5999984741211 84.30000305175781 -11.282999992370605 0 -1
75.80000305175781 80.9000015258789 -10.567000389099121 0 -1
78.80000305175781 73.80000305175781 14.071000099182129 1 -1
78 84.4000015258789 -10.746000289916992 0 -1
73.5 87.5 -11.803000450134277 0 -1
80 75.4000015258789 13.10099983215332 1 -1
77.19999694824219 78.80000305175781 -8.935999870300293 0 -1
72.5999984741211 81.30000305175781 -10.960000038146973 0 -1
74.80000305175781 87.0999984741211 -11.27299976348877 0 -1
72.80000305175781 79.69999694824219 -10.545000076293945 0 -1
72.5 76.0999984741211 -8.86299991607666 0 -1
79.80000305175781 71.9000015258789 22.09600067138672 1 -1
73.19999694824219 83.4000015258789 -10.388999938964844 0 -1
75.4000015258789 84.0999984741211 -10.97700023651123 0 -1
74.19999694824219 85.5999984741211 -11.041000366210938 0 -1
74.30000305175781 83.30000305175781 -11.074000358581543 0 -1
75.80000305175781 74.19999694824219 17.66699981689453 1 -1
74.69999694824219 78.80000305175781 -9.866999626159668 0 -1
71.30000305175781 72.30000305175781 14.14900016784668 1 -1
78.5 86.30000305175781 -10.83899974822998 0 -1
74.80000305175781 73.30000305175781 18.05500030517578 1 -1
76.19999694824219 76.4000015258789 -8.770999908447266 0 -1
78.4000015258789 79.0999984741211 -8.92300033569336 0 -1
74 76.5 -8.85200023651123 0 -1
75.19999694824219 78.5 -8.97700023651123 0 -1
74.4000015258789 76.0999984741211 -8.708000183105469 0 -1
73.30000305175781 79.80000305175781 -10.847999572753906 0 -1
72 88.30000305175781 -11.645999908447266 0 -1
73 73 18.79800033569336 1 -1
74.0999984741211 88.5999984741211 -10.89900016784668 0 -1
73.5 73.5999984741211 22.277999877929688 1 -1
78.69999694824219 89.69999694824219 -7.307000160217285 0 -1
78.5999984741211 72.0999984741211 22.17300033569336 1 -1
75.5999984741211 84.5999984741211 -11.388999938964844 0 -1
76.0999984741211 82.5999984741211 -10.956999778747559 0 -1
71.19999694824219 83 -10.843000411987305 0 -1
78.69999694824219 72.9000015258789 14.079000473022461 1 -1
72.19999694824219 85.19999694824219 -11.234999656677246 0 -1
78.69999694824219 89.5 -7.497000217437744 0 -1
76.9000015258789 76.9000015258789 16.26300048828125 1 -1
79.0999984741211 74.4000015258789 13.053999900817871 1 -1
73.30000305175781 79.69999694824219 -10.984000205993652 0 -1
76.69999694824219 78.69999694824219 -8.996999740600586 0 -1
79.5 81.5999984741211 -9.965999603271484 0 -1
72.19999694824219 71.5 14.149999618530273 1 -1
75.5 78.9000015258789 -9.385000228881836 0 -1
76 71 14.130000114440918 1 -1
77.19999694824219 78.5999984741211 -8.852999687194824 0 -1
71.69999694824219 85.19999694824219 -10.345000267028809 0 -1
72.30000305175781 84.9000015258789 -10.555000305175781 0 -1
74.5999984741211 74.0999984741211 18.0049991607666 1 -1
74.0999984741211 88.69999694824219 -10.836999893188477 0 -1
79.5999984741211 74.30000305175781 12.642999649047852 1 -1
79.69999694824219 81.9000015258789 -10.050000190734863 0 -1
79.80000305175781 71.69999694824219 22.09600067138672 1 -1
76.80000305175781 74 22.83300018310547 1 -1
73.19999694824219 83.19999694824219 -10.388999938964844 0 -1
71.5 73.19999694824219 14.086000442504883 1 -1
78.5999984741211 88.30000305175781 -9.89900016784668 0 -1
73.69999694824219 83.5999984741211 -10.961999893188477 0 -1
76.19999694824219 76.30000305175781 -8.74899959564209 0 -1
73.5 72.80000305175781 18.797000885009766 1 -1
75.5999984741211 84.5 -11.37600040435791 0 -1
78.0999984741211 72.0999984741211 17.007999420166016 1 -1
78 84.5999984741211 -10.831000328063965 0 -1
74.9000015258789 88.0999984741211 -11.315999984741211 0 -1
75.4000015258789 84.80000305175781 -10.531000137329102 0 -1
73.5 87.30000305175781 -11.71500015258789 0 -1
73 89.19999694824219 -10.119999885559082 0 -1
72.4000015258789 72.80000305175781 17.719999313354492 1 -1
73.0999984741211 82 -11.305999755859375 0 -1
75.80000305175781 81 -10.52400016784668 0 -1
77 81.5 -10.371000289916992 0 -1
74.80000305175781 87.5 -11.267999649047852 0 -1
71.30000305175781 86.5 -11.60099983215332 0 -1
79.19999694824219 88.5999984741211 -10.604000091552734 0 -1
72.5999984741211 81.4000015258789 -10.991999626159668 0 -1
74.0999984741211 75.69999694824219 -8.512999534606934 0 -1
73.9000015258789 75.5 -8.512999534606934 0 -1
71.19999694824219 83.4000015258789 -11.204999923706055 0 -1
76.5999984741211 82.5 -11.032999992370605 0 -1
76 87.0999984741211 -10.977999687194824 0 -1
80 75.5 12.987000465393066 1 -1
74 87.80000305175781 -11.708000183105469 0 -1
71.5 73.0999984741211 14.090999603271484 1 -1
74.19999694824219 78.80000305175781 -9.897000312805176 0 -1
78.30000305175781 73.80000305175781 14.074000358581543 1 -1
76.0999984741211 72.5 22.44099998474121 1 -1
79.69999694824219 81.80000305175781 -10.022000312805176 0 -1
71 84.80000305175781 -10.506999969482422 0 -1
73.19999694824219 83.30000305175781 -10.45300006866455 0 -1
75.80000305175781 74.0999984741211 17.698999404907227 1 -1
72.80000305175781 79.80000305175781 -10.657999992370605 0 -1
78.0999984741211 71.80000305175781 22.479000091552734 1 -1
79.4000015258789 76.19999694824219 12.932999610900879 1 -1
77.30000305175781 79 -9.10099983215332 0 -1
74.0999984741211 89 -10.70199966430664 0 -1
71.69999694824219 85 -10.402000427246094 0 -1
74.80000305175781 73.4000015258789 18.160999298095703 1 -1
74.5 76.5999984741211 -8.892999649047852 0 -1
74.30000305175781 83.19999694824219 -10.579999923706055 0 -1
73 89.0999984741211 -10.803999900817871 0 -1
76.19999694824219 76.5 -8.791999816894531 0 -1
74 76.5999984741211 -8.880999565124512 0 -1
75.30000305175781 81.69999694824219 -11.123000144958496 0 -1
73.5999984741211 84.4000015258789 -11.557000160217285 0 -1
72.4000015258789 83.9000015258789 -10.90999984741211 0 -1
71.80000305175781 79.69999694824219 -10.637999534606934 0 -1
74.0999984741211 73.9000015258789 19.840999603271484 1 -1
71.30000305175781 72.4000015258789 14.170999526977539 1 -1
77.30000305175781 79.0999984741211 -9.156000137329102 0 -1
71.4000015258789 85.19999694824219 -10.930000305175781 0 -1
75.5999984741211 84.69999694824219 -11.37600040435791 0 -1
76.9000015258789 76.80000305175781 16.16699981689453 1 -1
75.5 79 -9.454999923706055 0 -1
73.4000015258789 76.69999694824219 -8.97599983215332 0 -1
71.80000305175781 79.80000305175781 -10.76200008392334 0 -1
