VERSION .7
FIELDS x y z label object
SIZE 4 4 4 4 4
TYPE F F F I I
COUNT 1 1 1 1 1
WIDTH 896
HEIGHT 1
POINTS 896
VIEWPOINT 0 0 0 1 0 0 0
DATA ascii
77.5 76.5 -7.619999885559082 0 -1
72.69999694824219 73.0999984741211 14.668999671936035 1 -1
77 71.80000305175781 14.762999534606934 1 -1
72.19999694824219 77.5 19.90999984741211 1 -1
77.5999984741211 81.0999984741211 -10.413000106811523 0 -1
75.5 84.9000015258789 -9.843000411987305 0 -1
72.5999984741211 89.0999984741211 -9.668999671936035 0 -1
76.30000305175781 72.19999694824219 14.73799991607666 1 -1
79.80000305175781 78.19999694824219 13.45199966430664 1 -1
75.19999694824219 87 -9.736000061035156 0 -1
74.80000305175781 81 15.079000473022461 1 -1
72.5 84.19999694824219 -10.647000312805176 0 -1
79.4000015258789 84.9000015258789 -9.838000297546387 0 -1
74.19999694824219 71.30000305175781 14.763999938964844 1 -1
74.4000015258789 82.5999984741211 15.428000450134277 1 -1
71.5 81.9000015258789 -9.59000015258789 0 -1
73.30000305175781 71 14.63700008392334 1 -1
74.4000015258789 84 15.0600004196167 1 -1
76.5999984741211 80 17.246000289916992 1 -1
71.30000305175781 80 -8.60200023651123 0 -1
73.19999694824219 77.4000015258789 -8.776000022888184 0 -1
77.80000305175781 82.9000015258789 -9.973999977111816 0 -1
73.69999694824219 76.30000305175781 -8.256999969482422 0 -1
71.19999694824219 75.30000305175781 14.005000114440918 1 -1
74.0999984741211 83.5999984741211 14.484000205993652 1 -1
77 71.69999694824219 14.741999626159668 1 -1
74.5999984741211 85 15.307000160217285 1 -1
79 89.9000015258789 -6.586999893188477 0 -1
79.0999984741211 88.19999694824219 -9.755000114440918 0 -1
74.69999694824219 89 -9.85200023651123 0 -1
72.0999984741211 71.5 14.645000457763672 1 -1
72.9000015258789 85.80000305175781 -9.996999740600586 0 -1
72.0999984741211 72.9000015258789 14.571000099182129 1 -1
77.0999984741211 75.5999984741211 -7.86899995803833 0 -1
72 77.9000015258789 19.19300079345703 1 -1
71.5999984741211 73.5 14.65999984741211 1 -1
71.69999694824219 75.4000015258789 19.767000198364258 1 -1
73.5 80.30000305175781 -9.470999717712402 0 -1
73.30000305175781 73.69999694824219 14.708000183105469 1 -1
77.19999694824219 89.19999694824219 -9.986000061035156 0 -1
72 78 18.781999588012695 1 -1
71.9000015258789 75.5 19.801000595092773 1 -1
73.19999694824219 74.69999694824219 13.722999572753906 1 -1
76.9000015258789 85.5999984741211 -2.2119998931884766 1 -1
76.4000015258789 85.30000305175781 -5.64900016784668 1 -1
77.9000015258789 86.4000015258789 -9.99899959564209 0 -1
71.5999984741211 73.69999694824219 14.65999984741211 1 -1
73.19999694824219 76.19999694824219 -7.968999862670898 0 -1
78.4000015258789 71.4000015258789 14.781000137329102 1 -1
74.5999984741211 83.9000015258789 15.119999885559082 1 -1
72.80000305175781 73.5 14.65999984741211 1 -1
71.69999694824219 77.0999984741211 -8.343000411987305 0 -1
76.80000305175781 82.69999694824219 -7.984000205993652 1 -1
73.5999984741211 75.0999984741211 13.73799991607666 1 -1
75.5 72.19999694824219 14.737000465393066 1 -1
79.4000015258789 84.80000305175781 -9.817999839782715 0 -1
75.30000305175781 82.0999984741211 16.798999786376953 1 -1
75.4000015258789 79 -8.710000038146973 0 -1
72.0999984741211 73 14.668999671936035 1 -1
77.30000305175781 88.0999984741211 -10.555999755859375 0 -1
71.5999984741211 71.0999984741211 14.640999794006348 1 -1
76.69999694824219 89.9000015258789 -9.758000373840332 0 -1
78.9000015258789 87 -9.78499984741211 0 -1
71.5999984741211 86.80000305175781 -10.557000160217285 0 -1
71.0999984741211 88.69999694824219 -10.442999839782715 0 -1
78.19999694824219 78.4000015258789 -7.7170000076293945 0 -1
74.0999984741211 83.69999694824219 14.458000183105469 1 -1
78.0999984741211 81.9000015258789 -9.626999855041504 0 -1
79.0999984741211 88.30000305175781 -9.743000030517578 0 -1
73.30000305175781 71.0999984741211 14.753000259399414 1 -1
71.80000305175781 71.9000015258789 14.609999656677246 1 -1
76.19999694824219 82 16.738000869750977 1 -1
75.5999984741211 73.80000305175781 20.854000091552734 1 -1
74.5 84.0999984741211 15.01200008392334 1 -1
74.30000305175781 77.5 19.29400062561035 1 -1
74.30000305175781 75 13.755000114440918 1 -1
72.5999984741211 72.5999984741211 14.602999687194824 1 -1
76.9000015258789 85.4000015258789 -1.9459999799728394 1 -1
79.80000305175781 81.5999984741211 13.310999870300293 1 -1
76 80 18.086999893188477 1 -1
77.19999694824219 90 -8.072999954223633 0 -1
72.30000305175781 78.4000015258789 -8.819000244140625 0 -1
72.69999694824219 73.19999694824219 14.67199993133545 1 -1
79.80000305175781 78 13.395999908447266 1 -1
76.4000015258789 73.5 20.783000946044922 1 -1
77.9000015258789 86.5 -9.925999641418457 0 -1
80 88.9000015258789 13.131999969482422 1 -1
73.30000305175781 73.5999984741211 14.715999603271484 1 -1
75.19999694824219 86.80000305175781 -9.913999557495117 0 -1
78.4000015258789 88.19999694824219 -10.402999877929688 0 -1
78.80000305175781 84.5999984741211 -10.168000221252441 0 -1
71 72.9000015258789 14.585000038146973 1 -1
76.0999984741211 73.9000015258789 21.53499984741211 1 -1
71.9000015258789 75.4000015258789 19.964000701904297 1 -1
77.9000015258789 77.5999984741211 18.033000946044922 1 -1
72.80000305175781 71 14.690999984741211 1 -1
74.19999694824219 86.69999694824219 -10.668999671936035 0 -1
76.5 82.30000305175781 -7.7769999504089355 1 -1
75.80000305175781 82.9000015258789 16.634000778198242 1 -1
72.4000015258789 75.19999694824219 13.690999984741211 1 -1
78 75.19999694824219 21.344999313354492 1 -1
78.4000015258789 71.30000305175781 14.774999618530273 1 -1
75 79.19999694824219 -8.769000053405762 0 -1
73.4000015258789 83.80000305175781 -10.619000434875488 0 -1
75.69999694824219 86.5 -9.92300033569336 0 -1
72.69999694824219 82.4000015258789 -10.565999984741211 0 -1
71.80000305175781 85.69999694824219 -10.46500015258789 0 -1
73.69999694824219 73.80000305175781 14.710000038146973 1 -1
73.0999984741211 77 24.354999542236328 1 -1
72.80000305175781 88.9000015258789 -10.545000076293945 0 -1
75.30000305175781 73.4000015258789 14.75 1 -1
71.4000015258789 77.5999984741211 22.52199935913086 1 -1
71.19999694824219 76.9000015258789 20.135000228881836 1 -1
78.19999694824219 78.5 -7.843999862670898 0 -1
71.69999694824219 75.5999984741211 20.027999877929688 1 -1
79.30000305175781 85.4000015258789 -10.505999565124512 0 -1
71.30000305175781 78.4000015258789 19.202999114990234 1 -1
71.5 81.69999694824219 -9.59000015258789 0 -1
72.4000015258789 74.80000305175781 13.70300006866455 1 -1
74 84.5999984741211 14.281000137329102 1 -1
79.69999694824219 83.5 -9.562000274658203 0 -1
74.4000015258789 84.19999694824219 14.720000267028809 1 -1
74.9000015258789 78.30000305175781 -8.265999794006348 0 -1
77 71.9000015258789 14.76099967956543 1 -1
77.80000305175781 82.69999694824219 -9.90999984741211 0 -1
75.80000305175781 72.19999694824219 14.71399974822998 1 -1
75.0999984741211 83.30000305175781 15.8149995803833 1 -1
79.19999694824219 79.30000305175781 -8.156999588012695 0 -1
74.69999694824219 73.5999984741211 14.741999626159668 1 -1
78.80000305175781 84.5 -10.17300033569336 0 -1
77.19999694824219 71.0999984741211 14.741999626159668 1 -1
74.5 82.5999984741211 14.753999710083008 1 -1
72.5 84.0999984741211 -10.664999961853027 0 -1
74.19999694824219 86.5999984741211 -10.718999862670898 0 -1
77.69999694824219 85.0999984741211 -10.72599983215332 0 -1
73.69999694824219 76.4000015258789 -8.352999687194824 0 -1
71.80000305175781 85.80000305175781 -10.413999557495117 0 -1
79.5 89.9000015258789 -6.125 0 -1
72.5999984741211 72.30000305175781 14.600000381469727 1 -1
71.4000015258789 75.0999984741211 13.6850004196167 1 -1
75.80000305175781 73.19999694824219 14.692000389099121 1 -1
77.5 76.4000015258789 -7.623000144958496 0 -1
72.19999694824219 79.0999984741211 -9.300000190734863 0 -1
78.4000015258789 88.30000305175781 -9.595999717712402 0 -1
75.19999694824219 86.9000015258789 -9.824999809265137 0 -1
74.80000305175781 80.9000015258789 15.062000274658203 1 -1
72.30000305175781 75.9000015258789 20.017000198364258 1 -1
78.0999984741211 81.69999694824219 -9.609999656677246 0 -1
74.0999984741211 83.5 14.496000289916992 1 -1
72.0999984741211 84.69999694824219 -10.604999542236328 0 -1
76.5 82.19999694824219 -7.693999767303467 1 -1
76.30000305175781 84 -4.749000072479248 1 -1
77 74.30000305175781 21.19700050354004 1 -1
76.30000305175781 72.30000305175781 14.704000473022461 1 -1
79.9000015258789 88.5 -9.277000427246094 0 -1
73.80000305175781 74.9000015258789 13.357000350952148 1 -1
78.5 81.19999694824219 -9.175000190734863 0 -1
76.5999984741211 80.0999984741211 18.243000030517578 1 -1
71.19999694824219 76.80000305175781 20.173999786376953 1 -1
72.19999694824219 77.5999984741211 19.91900062561035 1 -1
75.30000305175781 82.80000305175781 16.025999069213867 1 -1
76.80000305175781 82.0999984741211 -7.870999813079834 1 -1
79.30000305175781 85.5 -10.140999794006348 0 -1
75.9000015258789 83.30000305175781 16.39699935913086 1 -1
79.9000015258789 85.9000015258789 13.21500015258789 1 -1
74.4000015258789 84.0999984741211 14.954999923706055 1 -1
71.5999984741211 87 -10.609000205993652 0 -1
73.9000015258789 85.80000305175781 -9.847999572753906 0 -1
75.4000015258789 79.69999694824219 16.18199920654297 1 -1
80 85.30000305175781 -9.45199966430664 0 -1
72.5999984741211 89.19999694824219 -9.73900032043457 0 -1
74.69999694824219 73.69999694824219 14.755999565124512 1 -1
73.0999984741211 75.5 20.31800079345703 1 -1
71.5999984741211 73.5999984741211 14.66100025177002 1 -1
75.19999694824219 71.5 14.751999855041504 1 -1
76.5999984741211 77.5 -7.579999923706055 0 -1
79.5999984741211 82 -9.038000106811523 0 -1
73.80000305175781 75 19.95800018310547 1 -1
73 78 -8.72599983215332 0 -1
78.69999694824219 78.4000015258789 -7.7220001220703125 0 -1
74.69999694824219 71.0999984741211 14.76099967956543 1 -1
75.0999984741211 85.80000305175781 -9.10200023651123 1 -1
71.30000305175781 79.9000015258789 -8.595999717712402 0 -1
77.9000015258789 86.30000305175781 -10.265000343322754 0 -1
74.5 82.80000305175781 14.753999710083008 1 -1
73.30000305175781 89 -9.90999984741211 0 -1
75.5 84 16.170000076293945 1 -1
74.5 84.19999694824219 15.001999855041504 1 -1
72.4000015258789 81.9000015258789 -9.996999740600586 0 -1
75.19999694824219 73 14.711000442504883 1 -1
80 73.4000015258789 14.718000411987305 1 -1
75.9000015258789 83.19999694824219 16.503000259399414 1 -1
79.5 71 14.77299976348877 1 -1
71.0999984741211 88.5999984741211 -10.520000457763672 0 -1
72.5999984741211 89.5 -9.38700008392334 0 -1
72.80000305175781 71.4000015258789 14.631999969482422 1 -1
76.9000015258789 85.5 -1.9539999961853027 1 -1
79.4000015258789 84.69999694824219 -9.878999710083008 0 -1
75.69999694824219 84 16.531999588012695 1 -1
75 81.69999694824219 17.621999740600586 1 -1
74.30000305175781 74.9000015258789 13.751999855041504 1 -1
74.80000305175781 81.4000015258789 15.16100025177002 1 -1
73.9000015258789 85.69999694824219 -9.906000137329102 0 -1
73.30000305175781 88.9000015258789 -9.97599983215332 0 -1
71.9000015258789 75.5999984741211 19.964000701904297 1 -1
75.5 71.0999984741211 14.73799991607666 1 -1
78.9000015258789 86.5999984741211 -9.876999855041504 0 -1
78.5 81.5999984741211 -9.305000305175781 0 -1
77.5999984741211 81 -10.355999946594238 0 -1
76 80.0999984741211 16.929000854492188 1 -1
76.30000305175781 84.19999694824219 -4.749000072479248 1 -1
74.69999694824219 71 14.765999794006348 1 -1
75.30000305175781 82.69999694824219 16.239999771118164 1 -1
73.19999694824219 73.80000305175781 14.687000274658203 1 -1
74.69999694824219 88.5999984741211 -10.494999885559082 0 -1
77.5 76.30000305175781 -7.728000164031982 0 -1
72.5 84.30000305175781 -10.664999961853027 0 -1
77.9000015258789 77.69999694824219 18.030000686645508 1 -1
72.4000015258789 81.80000305175781 -9.965999603271484 0 -1
76.69999694824219 90 -8.116999626159668 0 -1
75.0999984741211 85.69999694824219 -9.307000160217285 0 -1
71.4000015258789 74.9000015258789 -7.288000106811523 0 -1
72.80000305175781 73.5999984741211 14.654999732971191 1 -1
71 76.30000305175781 22.253000259399414 1 -1
73.5999984741211 75.19999694824219 13.744999885559082 1 -1
72.30000305175781 78.80000305175781 -8.954000473022461 0 -1
72.69999694824219 72.80000305175781 14.664999961853027 1 -1
78.5999984741211 79.0999984741211 -8.177000045776367 0 -1
73 77.9000015258789 -8.741999626159668 0 -1
75.69999694824219 86.4000015258789 -9.904000282287598 0 -1
77.80000305175781 82.80000305175781 -9.942000389099121 0 -1
71.19999694824219 75.4000015258789 19.69700050354004 1 -1
76.5 82.4000015258789 -7.5269999504089355 1 -1
79 89.80000305175781 -6.823999881744385 0 -1
75 79 -8.769000053405762 0 -1
73.0999984741211 76.9000015258789 24.267000198364258 1 -1
72.9000015258789 85.9000015258789 -10.206999778747559 0 -1
72.80000305175781 89 -9.975000381469727 0 -1
74.5999984741211 83.5 15.333000183105469 1 -1
76 79.9000015258789 18.16200065612793 1 -1
71.30000305175781 78.5 19.030000686645508 1 -1
77.5999984741211 80.9000015258789 -10.289999961853027 0 -1
74 84.69999694824219 14.272000312805176 1 -1
73.69999694824219 76.5 -8.399999618530273 0 -1
74.4000015258789 84.30000305175781 14.486000061035156 1 -1
75.19999694824219 86.69999694824219 -9.626999855041504 0 -1
78 77.5999984741211 18.030000686645508 1 -1
80 85.5 -9.618000030517578 0 -1
76.0999984741211 81.5999984741211 16.834999084472656 1 -1
77.4000015258789 84.4000015258789 -9.869999885559082 0 -1
72.19999694824219 79 -8.982999801635742 0 -1
72.9000015258789 86 -10.333999633789062 0 -1
73.5 80.19999694824219 -9.508000373840332 0 -1
79.19999694824219 79.4000015258789 -8.305000305175781 0 -1
72.30000305175781 75.80000305175781 20.216999053955078 1 -1
74.69999694824219 88.69999694824219 -10.475000381469727 0 -1
75.80000305175781 82 16.6299991607666 1 -1
72 78.0999984741211 19.19300079345703 1 -1
71.19999694824219 77.30000305175781 -8.512999534606934 0 -1
76.5999984741211 75.5999984741211 22.11199951171875 1 -1
77.69999694824219 85 -10.855999946594238 0 -1
79.5 89.80000305175781 -6.396999835968018 0 -1
76.4000015258789 85.4000015258789 -5.269000053405762 1 -1
71 86.19999694824219 -10.656000137329102 0 -1
73.30000305175781 71.19999694824219 14.765000343322754 1 -1
72.5999984741211 72.19999694824219 14.652000427246094 1 -1
77 72 14.767999649047852 1 -1
74.9000015258789 77.9000015258789 -8.350000381469727 0 -1
72.30000305175781 76 20.216999053955078 1 -1
75.30000305175781 82.9000015258789 16.239999771118164 1 -1
78.30000305175781 82.5999984741211 -9.83899974822998 0 -1
71.69999694824219 77 -8.418999671936035 0 -1
76.9000015258789 85.30000305175781 -1.718999981880188 1 -1
76.80000305175781 82 -7.995999813079834 1 -1
77.69999694824219 86 -10.36299991607666 0 -1
71.19999694824219 75.5 19.690000534057617 1 -1
72.0999984741211 73.0999984741211 14.67199993133545 1 -1
74.5 84 15.041999816894531 1 -1
71.5999984741211 71 14.642000198364258 1 -1
79.5999984741211 82.4000015258789 -9.14799976348877 0 -1
74.30000305175781 75.0999984741211 13.720000267028809 1 -1
74.30000305175781 77.4000015258789 19.476999282836914 1 -1
75.5999984741211 79.4000015258789 16.634000778198242 1 -1
76.19999694824219 87.5999984741211 -9.940999984741211 0 -1
71.5999984741211 73.30000305175781 14.661999702453613 1 -1
73.69999694824219 74.69999694824219 13.732000350952148 1 -1
73.30000305175781 73.5 14.723999977111816 1 -1
78.4000015258789 73.5 14.696999549865723 1 -1
75 79.0999984741211 -8.723999977111816 0 -1
75.80000305175781 73.0999984741211 14.680999755859375 1 -1
71.80000305175781 71.80000305175781 14.609000205993652 1 -1
77.30000305175781 88.19999694824219 -10.621999740600586 0 -1
77.19999694824219 89.9000015258789 -9.399999618530273 0 -1
75.9000015258789 83.4000015258789 16.424999237060547 1 -1
75.19999694824219 71.4000015258789 14.732999801635742 1 -1
76.5999984741211 77.4000015258789 -7.61299991607666 0 -1
79.80000305175781 81.69999694824219 -9.07699966430664 0 -1
71.19999694824219 77.19999694824219 20.81100082397461 1 -1
75 81.9000015258789 17.621999740600586 1 -1
75.9000015258789 89.30000305175781 -8.621999740600586 0 -1
71.0999984741211 89 -10.369999885559082 0 -1
75.5 84.0999984741211 16.69099998474121 1 -1
80 88.80000305175781 12.12600040435791 1 -1
75.19999694824219 73.19999694824219 14.734000205993652 1 -1
71.5999984741211 86.5999984741211 -10.581000328063965 0 -1
72 78.19999694824219 18.781999588012695 1 -1
78.69999694824219 78.30000305175781 -7.7179999351501465 0 -1
75.19999694824219 73.0999984741211 14.706000328063965 1 -1
76.4000015258789 85.5 -5.395999908447266 1 -1
79.69999694824219 83.9000015258789 -9.604999542236328 0 -1
71 87.9000015258789 -10.348999977111816 0 -1
71.80000305175781 71.69999694824219 14.609999656677246 1 -1
73.0999984741211 75.0999984741211 13.708000183105469 1 -1
78 75.30000305175781 21.625999450683594 1 -1
79.0999984741211 88.4000015258789 -8.9350004196167 0 -1
72.5999984741211 72.4000015258789 14.602999687194824 1 -1
78.4000015258789 71.19999694824219 14.767999649047852 1 -1
73.4000015258789 83.9000015258789 12.218000411987305 1 -1
74.19999694824219 87 -10.444000244140625 0 -1
74.4000015258789 82.5 15.368000030517578 1 -1
79.80000305175781 77.9000015258789 13.437000274658203 1 -1
72.4000015258789 74.9000015258789 13.678000450134277 1 -1
73.5999984741211 77 24.44499969482422 1 -1
77.80000305175781 82.0999984741211 -9.664999961853027 0 -1
77.30000305175781 88.30000305175781 -9.965999603271484 0 -1
72.30000305175781 78.5999984741211 -8.819000244140625 0 -1
77.0999984741211 75.69999694824219 -7.7769999504089355 0 -1
79.5 71.0999984741211 14.77299976348877 1 -1
71.30000305175781 80.30000305175781 -8.956999778747559 0 -1
77.9000015258789 86.69999694824219 -9.777999877929688 0 -1
74.80000305175781 81.30000305175781 15.194000244140625 1 -1
71.69999694824219 75.69999694824219 19.847999572753906 1 -1
77.4000015258789 84.5999984741211 -9.729000091552734 0 -1
72.80000305175781 71.30000305175781 14.644000053405762 1 -1
74.0999984741211 83.9000015258789 15.03600025177002 1 -1
75.5 71 14.72700023651123 1 -1
78.80000305175781 84.4000015258789 -9.800000190734863 0 -1
79 89.5999984741211 -6.823999881744385 0 -1
74.5 82.69999694824219 14.748000144958496 1 -1
77.9000015258789 77.4000015258789 18.033000946044922 1 -1
72.69999694824219 82 -9.965999603271484 0 -1
77.4000015258789 79.5 18.00200080871582 1 -1
75.69999694824219 84.0999984741211 16.593000411987305 1 -1
79.30000305175781 85.5999984741211 -10.161999702453613 0 -1
78.4000015258789 88.9000015258789 -7.8460001945495605 0 -1
71.4000015258789 75 -7.303999900817871 0 -1
73.19999694824219 76.0999984741211 -7.909999847412109 0 -1
75.0999984741211 83.4000015258789 15.807999610900879 1 -1
77.30000305175781 71.0999984741211 14.739999771118164 1 -1
72.0999984741211 73.19999694824219 14.668999671936035 1 -1
71.69999694824219 76.80000305175781 -8.119000434875488 0 -1
78.19999694824219 78.0999984741211 -7.692999839782715 0 -1
72.80000305175781 88.5999984741211 -10.47599983215332 0 -1
71.80000305175781 85.9000015258789 -10.397000312805176 0 -1
76.30000305175781 84.0999984741211 -4.947999954223633 1 -1
75 81.80000305175781 17.141000747680664 1 -1
73.5 80 -9.336999893188477 0 -1
78.5999984741211 79 -8.130000114440918 0 -1
77.4000015258789 79.5999984741211 18.11199951171875 1 -1
79.0999984741211 88.5 -8.524999618530273 0 -1
74.69999694824219 73.30000305175781 14.73900032043457 1 -1
74.30000305175781 77.19999694824219 19.476999282836914 1 -1
75.9000015258789 89.0999984741211 -9.996999740600586 0 -1
76.19999694824219 87.80000305175781 -9.984999656677246 0 -1
74.5999984741211 83.5999984741211 -10.673999786376953 0 -1
75.4000015258789 79.80000305175781 16.128000259399414 1 -1
77.5 76.19999694824219 -7.7210001945495605 0 -1
72.0999984741211 84.5999984741211 -10.59000015258789 0 -1
71.4000015258789 76.9000015258789 20.200000762939453 1 -1
79.69999694824219 83.80000305175781 13.279999732971191 1 -1
72.4000015258789 75 13.690999984741211 1 -1
79.9000015258789 88.4000015258789 13.529999732971191 1 -1
72.80000305175781 73.69999694824219 14.663999557495117 1 -1
78.0999984741211 81.0999984741211 -10.199000358581543 0 -1
78.5 81.5 -9.27299976348877 0 -1
79.80000305175781 81.9000015258789 -9.07699966430664 0 -1
78.80000305175781 84.30000305175781 -9.829999923706055 0 -1
78.30000305175781 82.30000305175781 -9.651000022888184 0 -1
73.0999984741211 76.80000305175781 24.354999542236328 1 -1
78.19999694824219 78.19999694824219 -7.7170000076293945 0 -1
72.69999694824219 82.0999984741211 -10.086000442504883 0 -1
76.69999694824219 89.5999984741211 -8.142999649047852 0 -1
77.30000305175781 73 14.718000411987305 1 -1
71.0999984741211 71.5999984741211 14.618000030517578 1 -1
75.5999984741211 79.5999984741211 16.586999893188477 1 -1
80 85.4000015258789 -9.449999809265137 0 -1
71 76.69999694824219 20.135000228881836 1 -1
77.30000305175781 71 14.708000183105469 1 -1
75 78.9000015258789 -8.697999954223633 0 -1
73 78.30000305175781 -8.772000312805176 0 -1
76.5999984741211 75.69999694824219 21.631999969482422 1 -1
74 84.80000305175781 14.241999626159668 1 -1
72.0999984741211 84.5 -10.562999725341797 0 -1
76.5 82 -7.519999980926514 1 -1
78.4000015258789 89 -7.64900016784668 0 -1
74.5 82.9000015258789 14.857000350952148 1 -1
77.5999984741211 81.9000015258789 -9.699999809265137 0 -1
78 77.5 18.033000946044922 1 -1
73.0999984741211 77.30000305175781 -8.541000366210938 0 -1
77.4000015258789 84.5 -9.763999938964844 0 -1
71.5999984741211 71.30000305175781 14.644000053405762 1 -1
73.80000305175781 75.0999984741211 20.440000534057617 1 -1
79.19999694824219 79.5 -8.255999565124512 0 -1
74.69999694824219 73.4000015258789 14.743000030517578 1 -1
75.0999984741211 83.5 15.8149995803833 1 -1
75.80000305175781 82.0999984741211 16.601999282836914 1 -1
73.69999694824219 76.5999984741211 19.954999923706055 1 -1
79.5 89.69999694824219 -6.307000160217285 0 -1
71.30000305175781 78.0999984741211 19.216999053955078 1 -1
79.9000015258789 85.69999694824219 12.859000205993652 1 -1
76.5999984741211 77.80000305175781 -7.982999801635742 0 -1
72.19999694824219 78.9000015258789 -8.954000473022461 0 -1
73.69999694824219 74.5999984741211 13.725000381469727 1 -1
72.5999984741211 89.4000015258789 -9.597999572753906 0 -1
79.4000015258789 84.5999984741211 -9.934000015258789 0 -1
80 73.30000305175781 14.736000061035156 1 -1
78.69999694824219 78.0999984741211 -7.540999889373779 0 -1
74.69999694824219 71.4000015258789 14.734000205993652 1 -1
76.0999984741211 81.5 16.93600082397461 1 -1
78 75.5 21.663000106811523 1 -1
76.4000015258789 85 -5.833000183105469 1 -1
76.19999694824219 87.69999694824219 -9.998000144958496 0 -1
75.5999984741211 79.5 16.610000610351562 1 -1
74.9000015258789 78 -8.36400032043457 0 -1
74.19999694824219 71.5999984741211 14.741999626159668 1 -1
71.80000305175781 86 -10.413999557495117 0 -1
71.5 81.5999984741211 -9.538000106811523 0 -1
78.9000015258789 86.69999694824219 -9.92199993133545 0 -1
73.5999984741211 76.80000305175781 24.44499969482422 1 -1
78.30000305175781 82.19999694824219 -9.628000259399414 0 -1
73.5999984741211 74.80000305175781 13.708000183105469 1 -1
76.80000305175781 82.4000015258789 -7.992000102996826 1 -1
75.80000305175781 73 14.692000389099121 1 -1
76.30000305175781 84.30000305175781 -4.947999954223633 1 -1
75.30000305175781 73.30000305175781 14.729000091552734 1 -1
73.9000015258789 85.5999984741211 -9.913999557495117 0 -1
77.5999984741211 81.80000305175781 -9.678000450134277 0 -1
75.5 84.19999694824219 16.820999145507812 1 -1
73.30000305175781 88.80000305175781 -9.90999984741211 0 -1
77.69999694824219 85.9000015258789 -10.315999984741211 0 -1
75.19999694824219 73.30000305175781 14.723999977111816 1 -1
79.5 72.19999694824219 14.75100040435791 1 -1
75.69999694824219 86.30000305175781 -9.92300033569336 0 -1
72.4000015258789 81.69999694824219 -9.880000114440918 0 -1
74.19999694824219 71.5 14.743000030517578 1 -1
75.9000015258789 89.19999694824219 -9.991000175476074 0 -1
71.4000015258789 74.80000305175781 -7.125999927520752 0 -1
77 74.19999694824219 21.16200065612793 1 -1
79.80000305175781 79.80000305175781 13.354000091552734 1 -1
71.0999984741211 88.9000015258789 -10.442999839782715 0 -1
78.0999984741211 80.9000015258789 -10.128000259399414 0 -1
72.69999694824219 72.9000015258789 14.668999671936035 1 -1
79.5999984741211 82.19999694824219 -9.038000106811523 0 -1
79.9000015258789 87.69999694824219 13.199999809265137 1 -1
74.69999694824219 71.30000305175781 14.736000061035156 1 -1
75.0999984741211 85.5999984741211 -9.51200008392334 0 -1
74.30000305175781 75.19999694824219 22.52400016784668 1 -1
75.69999694824219 84.19999694824219 16.573999404907227 1 -1
73.0999984741211 75.19999694824219 13.73900032043457 1 -1
72.30000305175781 78.69999694824219 -8.961000442504883 0 -1
72.9000015258789 85.5999984741211 -9.904000282287598 0 -1
74.80000305175781 81.19999694824219 15.16100025177002 1 -1
71.80000305175781 72.69999694824219 14.57699966430664 1 -1
72.5 84.4000015258789 -10.527000427246094 0 -1
74.4000015258789 82.4000015258789 15.307999610900879 1 -1
78.4000015258789 73.5999984741211 14.692999839782715 1 -1
76.4000015258789 85.0999984741211 -5.64900016784668 1 -1
71.30000305175781 80.19999694824219 -8.892999649047852 0 -1
73.19999694824219 76 -7.881999969482422 0 -1
75.30000305175781 82.5 16.062999725341797 1 -1
77.4000015258789 84.69999694824219 -9.763999938964844 0 -1
72.80000305175781 71.19999694824219 14.631999969482422 1 -1
79.4000015258789 84.5 -9.940999984741211 0 -1
79 89.69999694824219 -6.744999885559082 0 -1
71.0999984741211 71.5 14.621999740600586 1 -1
71 88 -10.378999710083008 0 -1
74.69999694824219 88.80000305175781 -10.468000411987305 0 -1
72.80000305175781 73.30000305175781 14.670000076293945 1 -1
71.69999694824219 76.9000015258789 -8.159000396728516 0 -1
73.4000015258789 83.5 -9.98900032043457 0 -1
77.4000015258789 79.4000015258789 18.11199951171875 1 -1
73.5 80.0999984741211 -9.383000373840332 0 -1
75 81 15.463000297546387 1 -1
80 82.5 13.288000106811523 1 -1
72.80000305175781 88.69999694824219 -10.479999542236328 0 -1
76 80.30000305175781 16.915000915527344 1 -1
80 88.69999694824219 13.062000274658203 1 -1
75.30000305175781 73.5999984741211 14.763999938964844 1 -1
79.19999694824219 79.5999984741211 -8.305000305175781 0 -1
73.30000305175781 71.30000305175781 14.753000259399414 1 -1
72.4000015258789 81.0999984741211 -9.487000465393066 0 -1
79.5999984741211 82.30000305175781 -9.14799976348877 0 -1
74.30000305175781 77.30000305175781 19.29400062561035 1 -1
74.5999984741211 83.69999694824219 15.119999885559082 1 -1
76.19999694824219 87.9000015258789 -9.998000144958496 0 -1
77.5 76.0999984741211 -7.728000164031982 0 -1
76.9000015258789 85.19999694824219 -1.7309999465942383 1 -1
79.80000305175781 81.80000305175781 -9.062999725341797 0 -1
71.4000015258789 76.80000305175781 20.173999786376953 1 -1
79.0999984741211 83.5 -9.918999671936035 0 -1
77.19999694824219 89.80000305175781 -8.119000434875488 0 -1
78.5999984741211 78.9000015258789 -8.060999870300293 0 -1
76.69999694824219 89.69999694824219 -8.517999649047852 0 -1
71.5999984741211 73.4000015258789 14.66100025177002 1 -1
71.9000015258789 75.69999694824219 20.253999710083008 1 -1
71.80000305175781 72.5999984741211 14.564000129699707 1 -1
73.30000305175781 73.4000015258789 14.730999946594238 1 -1
75 80.9000015258789 15.616999626159668 1 -1
75.80000305175781 82.19999694824219 16.55900001525879 1 -1
71.30000305175781 78.19999694824219 18.98200035095215 1 -1
71.19999694824219 75.0999984741211 13.470000267028809 1 -1
78.4000015258789 73.69999694824219 14.689000129699707 1 -1
75.5999984741211 79.69999694824219 16.506000518798828 1 -1
72.5999984741211 72 14.628999710083008 1 -1
78.4000015258789 71.5999984741211 14.767000198364258 1 -1
73.30000305175781 71.4000015258789 14.765000343322754 1 -1
71.69999694824219 77.69999694824219 -8.767000198364258 0 -1
73.19999694824219 73.9000015258789 14.706000328063965 1 -1
71.80000305175781 85 -10.755999565124512 0 -1
71.5999984741211 71.4000015258789 14.668999671936035 1 -1
80 72.0999984741211 14.769000053405762 1 -1
74.4000015258789 84.4000015258789 14.765999794006348 1 -1
78.4000015258789 71.5 14.765999794006348 1 -1
73.69999694824219 76.69999694824219 24.301000595092773 1 -1
73.5999984741211 75 13.729000091552734 1 -1
74 84.9000015258789 -9.890999794006348 0 -1
77.0999984741211 75.30000305175781 21.538000106811523 1 -1
76.0999984741211 81.80000305175781 16.989999771118164 1 -1
73.0999984741211 77.19999694824219 24.184999465942383 1 -1
71.5999984741211 86.69999694824219 -10.5649995803833 0 -1
72 78.30000305175781 -8.817000389099121 0 -1
73.5 79.9000015258789 -9.383000373840332 0 -1
73.30000305175781 73.30000305175781 14.73799991607666 1 -1
72.30000305175781 78 -8.581999778747559 0 -1
79.5 89.5999984741211 -6.396999835968018 0 -1
78.69999694824219 78.19999694824219 -7.480999946594238 0 -1
75.30000305175781 73.69999694824219 14.732999801635742 1 -1
74.9000015258789 78.5999984741211 -8.364999771118164 0 -1
77 74 21.684999465942383 1 -1
75.80000305175781 72.9000015258789 14.706999778747559 1 -1
77.80000305175781 82 -9.633000373840332 0 -1
72.69999694824219 73.5 14.661999702453613 1 -1
78 75.4000015258789 21.64299964904785 1 -1
75 79.80000305175781 -8.998000144958496 0 -1
78.30000305175781 82.4000015258789 -9.72599983215332 0 -1
73.5999984741211 76.9000015258789 24.344999313354492 1 -1
76.5999984741211 77.69999694824219 -7.579999923706055 0 -1
79.30000305175781 85.69999694824219 -10.140999794006348 0 -1
79.69999694824219 88.30000305175781 -9.795999526977539 0 -1
75.19999694824219 86.5999984741211 -9.753999710083008 0 -1
75.9000015258789 89.5 -8.621999740600586 0 -1
71.19999694824219 77.0999984741211 20.586000442504883 1 -1
74.5999984741211 83.19999694824219 15.28499984741211 1 -1
75.5 84.30000305175781 -8.458000183105469 1 -1
75.4000015258789 79.4000015258789 -8.946000099182129 0 -1
72.5 84.5999984741211 -10.527000427246094 0 -1
73.69999694824219 74.5 13.720999717712402 1 -1
74.19999694824219 86.9000015258789 -10.470999717712402 0 -1
71.5 81.5 -9.484999656677246 0 -1
71.0999984741211 88.30000305175781 -10.510000228881836 0 -1
72.69999694824219 82.69999694824219 -10.645999908447266 0 -1
72.19999694824219 79.80000305175781 -8.881999969482422 0 -1
77.30000305175781 88.4000015258789 -9.77400016784668 0 -1
73.9000015258789 85.5 -9.906000137329102 0 -1
74.80000305175781 81.5999984741211 17.141000747680664 1 -1
76.0999984741211 81.9000015258789 16.961000442504883 1 -1
77.69999694824219 85.80000305175781 -10.36299991607666 0 -1
77 72.0999984741211 14.776000022888184 1 -1
71.80000305175781 85.0999984741211 -10.53499984741211 0 -1
79.5 72.30000305175781 14.746999740600586 1 -1
74.5 82 16.107999801635742 1 -1
75.69999694824219 86.19999694824219 -9.904000282287598 0 -1
79.9000015258789 87.80000305175781 -9.9350004196167 0 -1
72.0999984741211 73.30000305175781 14.67199993133545 1 -1
75.9000015258789 83 16.530000686645508 1 -1
75.0999984741211 83.5999984741211 15.807999610900879 1 -1
71.69999694824219 75 13.651000022888184 1 -1
77.19999694824219 89.5999984741211 -8.968999862670898 0 -1
78.4000015258789 88.5999984741211 -8.154999732971191 0 -1
78.80000305175781 84.19999694824219 -9.907999992370605 0 -1
77 74.0999984741211 21.090999603271484 1 -1
75.69999694824219 84.30000305175781 16.593000411987305 1 -1
78.0999984741211 81 -10.092000007629395 0 -1
79.4000015258789 85.5 -9.944000244140625 0 -1
77.30000305175781 73.0999984741211 14.711999893188477 1 -1
74.69999694824219 73 14.706999778747559 1 -1
73.4000015258789 83.69999694824219 -10.61400032043457 0 -1
73.19999694824219 74.0999984741211 14.71399974822998 1 -1
76.80000305175781 82.30000305175781 -7.870999813079834 1 -1
74.19999694824219 86.80000305175781 -10.718999862670898 0 -1
73.80000305175781 75.19999694824219 19.981000900268555 1 -1
73 78.19999694824219 -8.786999702453613 0 -1
72.0999984741211 73.4000015258789 14.675999641418457 1 -1
80 83.4000015258789 13.267000198364258 1 -1
78.19999694824219 78.30000305175781 -7.709000110626221 0 -1
77.30000305175781 88.5 -9.701000213623047 0 -1
77.0999984741211 75.5 21.538000106811523 1 -1
79.69999694824219 88.19999694824219 -9.868000030517578 0 -1
74.4000015258789 82.19999694824219 15.307999610900879 1 -1
72.5999984741211 89.80000305175781 -8.904999732971191 0 -1
73.0999984741211 74.80000305175781 13.677000045776367 1 -1
75 81.0999984741211 15.496000289916992 1 -1
79.5999984741211 83.5999984741211 -9.805000305175781 0 -1
78.9000015258789 85.30000305175781 -10.196999549865723 0 -1
78.5 81.9000015258789 -9.487000465393066 0 -1
72.80000305175781 73.4000015258789 14.664999961853027 1 -1
79.30000305175781 85.80000305175781 -10.20199966430664 0 -1
72.0999984741211 84.4000015258789 -10.59000015258789 0 -1
73.9000015258789 85.4000015258789 -9.913999557495117 0 -1
78 77.4000015258789 17.8700008392334 1 -1
76.9000015258789 85 -1.75600004196167 1 -1
71.5999984741211 71.19999694824219 14.642000198364258 1 -1
74.4000015258789 84.5999984741211 14.845999717712402 1 -1
71.30000305175781 80.5999984741211 -8.968000411987305 0 -1
71.4000015258789 75.69999694824219 19.690000534057617 1 -1
75.0999984741211 83.69999694824219 15.800999641418457 1 -1
79.19999694824219 79.69999694824219 -8.454000473022461 0 -1
78.80000305175781 84.0999984741211 -9.934000015258789 0 -1
77.4000015258789 84.80000305175781 -9.729000091552734 0 -1
79.4000015258789 85.4000015258789 -9.947999954223633 0 -1
76.69999694824219 89.80000305175781 -8.142999649047852 0 -1
75.19999694824219 86.4000015258789 -9.965999603271484 0 -1
75.0999984741211 85.5 -9.717000007629395 0 -1
73.19999694824219 75.80000305175781 20.209999084472656 1 -1
72.4000015258789 75.69999694824219 20.29599952697754 1 -1
75.4000015258789 79.5999984741211 -8.942999839782715 0 -1
73.30000305175781 88.69999694824219 -9.97599983215332 0 -1
77.5 76 -7.7210001945495605 0 -1
78.69999694824219 78 -7.480999946594238 0 -1
78.4000015258789 88.69999694824219 -10.213000297546387 0 -1
78.0999984741211 81.30000305175781 -9.51200008392334 0 -1
78 75.5999984741211 21.680999755859375 1 -1
76.30000305175781 84.4000015258789 -4.751999855041504 1 -1
79.5 88.5 -9.86400032043457 0 -1
74.4000015258789 82.30000305175781 15.368000030517578 1 -1
79 82.4000015258789 -9.34000015258789 0 -1
79.80000305175781 79.69999694824219 11.5 1 -1
76.0999984741211 81.69999694824219 16.972000122070312 1 -1
77.9000015258789 86.5999984741211 -9.85200023651123 0 -1
77.5999984741211 81.69999694824219 -10.586999893188477 0 -1
72.69999694824219 82.80000305175781 -10.324999809265137 0 -1
74.0999984741211 83.80000305175781 15.187000274658203 1 -1
73.19999694824219 74 14.152999877929688 1 -1
73.80000305175781 75.30000305175781 20.01300048828125 1 -1
75.80000305175781 82.30000305175781 16.658000946044922 1 -1
77.9000015258789 77.5 18.030000686645508 1 -1
71.30000305175781 78.30000305175781 19.030000686645508 1 -1
73.5999984741211 74.9000015258789 13.720999717712402 1 -1
77.0999984741211 75.4000015258789 21.582000732421875 1 -1
77.30000305175781 73.19999694824219 21.06999969482422 1 -1
78.5999984741211 79.30000305175781 -8.359999656677246 0 -1
79.5999984741211 83.69999694824219 -9.82800006866455 0 -1
78.5 81.80000305175781 -9.446999549865723 0 -1
74.4000015258789 84.5 14.76099967956543 1 -1
71.5 81.30000305175781 -9.206000328063965 0 -1
71.5999984741211 73 14.670999526977539 1 -1
73 78.0999984741211 -8.772000312805176 0 -1
74.30000305175781 75.30000305175781 22.92799949645996 1 -1
74.69999694824219 71.19999694824219 14.73799991607666 1 -1
74.9000015258789 78.69999694824219 -8.630999565124512 0 -1
73.0999984741211 77.0999984741211 24.23900032043457 1 -1
71.69999694824219 77.80000305175781 -8.819999694824219 0 -1
72.9000015258789 85.69999694824219 -9.857999801635742 0 -1
72.80000305175781 88.80000305175781 -10.515000343322754 0 -1
77 72.30000305175781 14.718000411987305 1 -1
72.80000305175781 71.5999984741211 14.619999885559082 1 -1
72.5 71.4000015258789 14.628999710083008 1 -1
74.69999694824219 88.4000015258789 -10.494999885559082 0 -1
79.9000015258789 87.5999984741211 13.180999755859375 1 -1
72.5 84.5 -10.53600025177002 0 -1
75.80000305175781 72.80000305175781 14.730999946594238 1 -1
76.5999984741211 77.5999984741211 -7.61299991607666 0 -1
75.30000305175781 73.5 14.756999969482422 1 -1
75.19999694824219 86.5 -9.711999893188477 0 -1
75.0999984741211 85.4000015258789 -9.664999961853027 0 -1
73.69999694824219 74.4000015258789 12.486000061035156 1 -1
77.5999984741211 81.5999984741211 -10.581000328063965 0 -1
73.30000305175781 88.5999984741211 -10.49899959564209 0 -1
73.19999694824219 75.9000015258789 23.136999130249023 1 -1
75.5 84.4000015258789 -8.295999526977539 1 -1
77.69999694824219 85.69999694824219 -10.503000259399414 0 -1
72.0999984741211 84.30000305175781 -10.562999725341797 0 -1
71.19999694824219 75.19999694824219 13.383000373840332 1 -1
77 73.9000015258789 21.690000534057617 1 -1
75.69999694824219 86.0999984741211 -9.847000122070312 0 -1
71.9000015258789 74.80000305175781 -7.111000061035156 0 -1
72.9000015258789 85.30000305175781 -9.949999809265137 0 -1
76.4000015258789 85.19999694824219 -5.5229997634887695 1 -1
76.5 82.0999984741211 -7.7769999504089355 1 -1
74.5999984741211 83.30000305175781 15.237000465393066 1 -1
75.9000015258789 89.4000015258789 -8.137999534606934 0 -1
74 84 15.425000190734863 1 -1
79 82.19999694824219 -9.35200023651123 0 -1
71.5 81.4000015258789 -9.23799991607666 0 -1
76.19999694824219 88 -9.984999656677246 0 -1
78.30000305175781 82 -9.496000289916992 0 -1
71.0999984741211 88.19999694824219 -10.5 0 -1
76 80.19999694824219 16.92099952697754 1 -1
80 83.19999694824219 13.267000198364258 1 -1
79.80000305175781 79.9000015258789 13.404000282287598 1 -1
72.5999984741211 89.5999984741211 -9.456999778747559 0 -1
73.69999694824219 75.80000305175781 23.197999954223633 1 -1
75.69999694824219 84.4000015258789 16.61199951171875 1 -1
77.69999694824219 77.9000015258789 18.048999786376953 1 -1
72.4000015258789 81 -9.416000366210938 0 -1
78.9000015258789 85.5 -10.331000328063965 0 -1
79.5 72.4000015258789 14.743000030517578 1 -1
71.19999694824219 77.5 -8.512999534606934 0 -1
74.69999694824219 88.5 -10.48900032043457 0 -1
80 82.5999984741211 13.37399959564209 1 -1
71.80000305175781 72.5 14.579000473022461 1 -1
75.9000015258789 83.0999984741211 16.540000915527344 1 -1
72.19999694824219 79.69999694824219 -8.909000396728516 0 -1
72.69999694824219 73.5999984741211 14.656999588012695 1 -1
78.4000015258789 73.30000305175781 21.320999145507812 1 -1
72 78.4000015258789 -8.904999732971191 0 -1
77.19999694824219 89.69999694824219 -8.91100025177002 0 -1
77 72.19999694824219 14.741000175476074 1 -1
73.4000015258789 83.5999984741211 -10.619000434875488 0 -1
73.19999694824219 74.19999694824219 14.717000007629395 1 -1
76.80000305175781 82.19999694824219 -7.995999813079834 1 -1
74.0999984741211 83.0999984741211 -10.65999984741211 0 -1
77.19999694824219 73.0999984741211 14.722000122070312 1 -1
72.5999984741211 72.0999984741211 14.640000343322754 1 -1
73.5999984741211 75.5999984741211 23.034000396728516 1 -1
79.5999984741211 83.5 -9.651000022888184 0 -1
79.80000305175781 80.0999984741211 13.333999633789062 1 -1
75.19999694824219 73.4000015258789 14.727999687194824 1 -1
71.30000305175781 80.5 -8.956999778747559 0 -1
74.4000015258789 82.0999984741211 15.593999862670898 1 -1
74.30000305175781 75.5 22.92799949645996 1 -1
73.30000305175781 71.5 14.777000427246094 1 -1
71.69999694824219 77.5999984741211 -8.607999801635742 0 -1
73.0999984741211 74.9000015258789 13.708000183105469 1 -1
76.9000015258789 85.0999984741211 -1.718999981880188 1 -1
72.4000015258789 80.9000015258789 -9.361000061035156 0 -1
80 72 14.767000198364258 1 -1
71.19999694824219 77.4000015258789 -8.569000244140625 0 -1
73.4000015258789 83.30000305175781 -10.588000297546387 0 -1
73.5 80.80000305175781 -9.798999786376953 0 -1
72.69999694824219 73.69999694824219 14.661999702453613 1 -1
71.19999694824219 74.80000305175781 13.67300033569336 1 -1
76.30000305175781 85.5999984741211 -5.413000106811523 1 -1
76.5 83.80000305175781 -5.816999912261963 1 -1
78.19999694824219 77.9000015258789 -7.704999923706055 0 -1
77.19999694824219 86.4000015258789 -4.875999927520752 1 -1
79.0999984741211 83.5999984741211 -9.956999778747559 0 -1
74.4000015258789 84.69999694824219 -9.92199993133545 0 -1
71.5999984741211 73.19999694824219 14.670999526977539 1 -1
71.80000305175781 72.4000015258789 14.593999862670898 1 -1
72.80000305175781 71.5 14.621000289916992 1 -1
73.30000305175781 73.19999694824219 14.730999946594238 1 -1
72.30000305175781 77.9000015258789 -8.5649995803833 0 -1
78.4000015258789 73.4000015258789 14.692999839782715 1 -1
79.19999694824219 79.80000305175781 -8.513999938964844 0 -1
79.80000305175781 79.5 11.5 1 -1
72 78.5 -8.949000358581543 0 -1
80 82.80000305175781 13.37399959564209 1 -1
71.9000015258789 75 13.664999961853027 1 -1
77.4000015258789 79.30000305175781 18.00200080871582 1 -1
77.0999984741211 74.0999984741211 21.16200065612793 1 -1
73.30000305175781 71.5999984741211 14.717000007629395 1 -1
71.9000015258789 77.5 24.333999633789062 1 -1
72.5 84.69999694824219 -10.260000228881836 0 -1
71.5999984741211 71.5999984741211 14.633999824523926 1 -1
71.5999984741211 86.30000305175781 -10.645000457763672 0 -1
72.80000305175781 88.4000015258789 -10.47599983215332 0 -1
79.5 88.4000015258789 -9.895000457763672 0 -1
74.80000305175781 81.5 15.194000244140625 1 -1
75.4000015258789 79.5 -8.954000473022461 0 -1
77.80000305175781 82.4000015258789 -9.675000190734863 0 -1
77.30000305175781 87.5999984741211 -9.946000099182129 0 -1
78.5999984741211 79.19999694824219 -8.199999809265137 0 -1
71.5999984741211 86.5 -10.642999649047852 0 -1
74.5 82.0999984741211 16.31100082397461 1 -1
78.0999984741211 81.4000015258789 -9.461999893188477 0 -1
73.30000305175781 73.0999984741211 14.779000282287598 1 -1
75.30000305175781 82.5999984741211 16.36199951171875 1 -1
77.80000305175781 82.19999694824219 -9.675000190734863 0 -1
76 79.5 17.944000244140625 1 -1
75.9000015258789 83.80000305175781 16.57200050354004 1 -1
71.5 81.19999694824219 -9.23799991607666 0 -1
79.0999984741211 83.69999694824219 -10.081000328063965 0 -1
75.4000015258789 78.19999694824219 -8.218999862670898 0 -1
77.9000015258789 87 -10.050999641418457 0 -1
75.19999694824219 86.30000305175781 -9.973999977111816 0 -1
71 87.5999984741211 -10.439000129699707 0 -1
71.69999694824219 75.0999984741211 13.633000373840332 1 -1
74.19999694824219 86.19999694824219 -10.647000312805176 0 -1
79.69999694824219 88.0999984741211 -9.907999992370605 0 -1
74.69999694824219 73.0999984741211 14.70199966430664 1 -1
74.5999984741211 83.4000015258789 15.28499984741211 1 -1
75.80000305175781 82.4000015258789 16.638999938964844 1 -1
72.80000305175781 73 14.684000015258789 1 -1
74.9000015258789 78.80000305175781 -8.687000274658203 0 -1
72.5999984741211 71.80000305175781 14.579999923706055 1 -1
73.19999694824219 76.69999694824219 20.009000778198242 1 -1
71.9000015258789 74.9000015258789 -7.160999774932861 0 -1
77.5 75.9000015258789 -7.697999954223633 0 -1
77 72.4000015258789 14.718999862670898 1 -1
71.80000305175781 85.19999694824219 -10.550000190734863 0 -1
77.0999984741211 74 20.947999954223633 1 -1
78.4000015258789 88.80000305175781 -8.043000221252441 0 -1
73.0999984741211 77.5 -8.758000373840332 0 -1
77.69999694824219 85.5999984741211 -10.456999778747559 0 -1
75.9000015258789 73.4000015258789 14.677000045776367 1 -1
72.0999984741211 73.5 14.682999610900879 1 -1
80 83.30000305175781 13.265999794006348 1 -1
78.19999694824219 78 -7.492000102996826 0 -1
76.80000305175781 85.69999694824219 -5.333000183105469 1 -1
79.30000305175781 85.9000015258789 -10.222000122070312 0 -1
75.5999984741211 79.80000305175781 17.17300033569336 1 -1
72.4000015258789 75.30000305175781 14.001999855041504 1 -1
73.69999694824219 75.9000015258789 -7.966000080108643 0 -1
74 84.0999984741211 14.791999816894531 1 -1
79 82.30000305175781 -9.331999778747559 0 -1
71.4000015258789 75.5999984741211 19.69700050354004 1 -1
71.0999984741211 88.0999984741211 -10.489999771118164 0 -1
72.19999694824219 79.5999984741211 -8.989999771118164 0 -1
76.69999694824219 88.4000015258789 -9.95199966430664 0 -1
78.80000305175781 84 -9.907999992370605 0 -1
73.9000015258789 85.30000305175781 -9.937000274658203 0 -1
72.5999984741211 89.69999694824219 -9.38700008392334 0 -1
76.9000015258789 82.9000015258789 -7.926000118255615 1 -1
76.4000015258789 84.80000305175781 -5.784999847412109 1 -1
79.30000305175781 86 -9.942000389099121 0 -1
78.9000015258789 85.4000015258789 -10.312000274658203 0 -1
79.5 72.5 14.767000198364258 1 -1
74.69999694824219 73.19999694824219 14.734999656677246 1 -1
75.9000015258789 82.5999984741211 16.577999114990234 1 -1
75.80000305175781 73.69999694824219 20.850000381469727 1 -1
75.69999694824219 88 -10.177000045776367 0 -1
76.5999984741211 73.9000015258789 21.79400062561035 1 -1
73.80000305175781 75.4000015258789 22.952999114990234 1 -1
75.0999984741211 83.80000305175781 15.722999572753906 1 -1
75.80000305175781 89.5999984741211 -7.979000091552734 0 -1
77.5999984741211 81.5 -10.524999618530273 0 -1
72.19999694824219 77.0999984741211 24.31599998474121 1 -1
76.5999984741211 75.5 21.924999237060547 1 -1
72.69999694824219 82.9000015258789 -10.324999809265137 0 -1
79.80000305175781 80 13.454999923706055 1 -1
78.69999694824219 77.9000015258789 -7.540999889373779 0 -1
75.19999694824219 73.5 14.732000350952148 1 -1
78.5 81.69999694824219 -9.487000465393066 0 -1
74.69999694824219 71.5999984741211 14.739999771118164 1 -1
78.9000015258789 85.0999984741211 -10.04699993133545 0 -1
75.30000305175781 83.30000305175781 16.0939998626709 1 -1
74.19999694824219 86.0999984741211 -10.59000015258789 0 -1
74.0999984741211 83 -10.592000007629395 0 -1
78.0999984741211 81.19999694824219 -9.461999893188477 0 -1
71.80000305175781 85.30000305175781 -10.503999710083008 0 -1
79.4000015258789 85.30000305175781 -9.9350004196167 0 -1
74.5 84.69999694824219 14.637999534606934 1 -1
78 75.69999694824219 -7.885000228881836 0 -1
77.19999694824219 73.19999694824219 14.734000205993652 1 -1
75 79.69999694824219 -8.972999572753906 0 -1
75.30000305175781 72 14.736000061035156 1 -1
79.9000015258789 88 -9.855999946594238 0 -1
76.0999984741211 80 17.055999755859375 1 -1
71.30000305175781 80.4000015258789 -8.892999649047852 0 -1
73.69999694824219 74.30000305175781 12.475000381469727 1 -1
73.4000015258789 83.19999694824219 -10.586999893188477 0 -1
71 87.80000305175781 -10.378999710083008 0 -1
74.30000305175781 75.4000015258789 22.52400016784668 1 -1
73.0999984741211 75 13.677000045776367 1 -1
80 83.0999984741211 13.246000289916992 1 -1
72.5 71.5 14.630000114440918 1 -1
71.5999984741211 73.0999984741211 14.661999702453613 1 -1
74.5 82.30000305175781 16.31100082397461 1 -1
73.30000305175781 88.5 -10.510000228881836 0 -1
76 79.5999984741211 18.160999298095703 1 -1
75 81.19999694824219 16.235000610351562 1 -1
73.9000015258789 85.19999694824219 -9.8100004196167 0 -1
74.80000305175781 81.9000015258789 17.621999740600586 1 -1
71.9000015258789 75.0999984741211 13.675000190734863 1 -1
77.19999694824219 86.5 -10.11400032043457 0 -1
75.5 71.5999984741211 14.720999717712402 1 -1
76.4000015258789 84.9000015258789 -5.761000156402588 1 -1
77.0999984741211 74.19999694824219 21.19700050354004 1 -1
78.4000015258789 89.4000015258789 -7.446000099182129 0 -1
77.9000015258789 86.80000305175781 -10.050999641418457 0 -1
73.0999984741211 74.5 14.616000175476074 1 -1
73.80000305175781 75.5 20.01300048828125 1 -1
74.69999694824219 71.5 14.765000343322754 1 -1
75.0999984741211 83.9000015258789 15.838000297546387 1 -1
77.9000015258789 77.30000305175781 17.8700008392334 1 -1
73 78.5 -8.817000389099121 0 -1
72.5999984741211 90 -8.904999732971191 0 -1
72.4000015258789 81.4000015258789 -9.604999542236328 0 -1
79.4000015258789 85.19999694824219 -9.87399959564209 0 -1
75.0999984741211 85.30000305175781 -9.972999572753906 0 -1
74.69999694824219 88.0999984741211 -10.465999603271484 0 -1
76.0999984741211 80.0999984741211 17.062000274658203 1 -1
79.9000015258789 86.0999984741211 13.21500015258789 1 -1
71.4000015258789 77.30000305175781 22.799999237060547 1 -1
72.0999984741211 84.19999694824219 -10.480999946594238 0 -1
