VERSION .7
FIELDS x y z label object
SIZE 4 4 4 4 4
TYPE F F F I I
COUNT 1 1 1 1 1
WIDTH 903
HEIGHT 1
POINTS 903
VIEWPOINT 0 0 0 1 0 0 0
DATA ascii
74.19999694824219 87.30000305175781 -4.834000110626221 0 -1
74.80000305175781 82.5 -7.728000164031982 0 -1
80 85.9000015258789 -6.815999984741211 0 -1
79.69999694824219 85.30000305175781 -7.343999862670898 0 -1
78.0999984741211 80.4000015258789 -8.324999809265137 0 -1
72 74.30000305175781 -6.050000190734863 0 -1
77.4000015258789 89.69999694824219 -4.926000118255615 0 -1
76.19999694824219 88.19999694824219 -4.9120001792907715 0 -1
74 82.5 -6.964000225067139 0 -1
74.0999984741211 85.80000305175781 -5.951000213623047 0 -1
77.5999984741211 79.4000015258789 -8.475000381469727 0 -1
79.30000305175781 81.4000015258789 -7.949999809265137 0 -1
72.19999694824219 76 -5.982999801635742 0 -1
73.5 85.0999984741211 -5.718999862670898 0 -1
71.19999694824219 71.4000015258789 15.70300006866455 1 -1
77.0999984741211 72.5999984741211 15.621999740600586 1 -1
75.5 83.30000305175781 -7.611000061035156 0 -1
75.30000305175781 86.69999694824219 -5.900000095367432 0 -1
72.4000015258789 78.80000305175781 -5.0970001220703125 0 -1
79.5999984741211 87.69999694824219 -5.7829999923706055 0 -1
78.30000305175781 82.80000305175781 -7.688000202178955 0 -1
73.19999694824219 84.69999694824219 -5.872000217437744 0 -1
80 85.5999984741211 -6.889999866485596 0 -1
79.9000015258789 86.0999984741211 -6.636000156402588 0 -1
76.30000305175781 88.0999984741211 -4.98199987411499 0 -1
75.69999694824219 89.30000305175781 -3.9579999446868896 0 -1
78.5999984741211 78.0999984741211 -8.510000228881836 0 -1
76 82.9000015258789 -7.966000080108643 0 -1
72.69999694824219 73 14.651000022888184 1 -1
80 73.0999984741211 14.600000381469727 1 -1
71.30000305175781 76.5 -4.992000102996826 0 -1
75.0999984741211 80.19999694824219 -7.708000183105469 0 -1
74.30000305175781 88.19999694824219 -4.4770002365112305 0 -1
73.5 85 -5.72599983215332 0 -1
79 71.4000015258789 15.677000045776367 1 -1
74.4000015258789 84.5999984741211 -6.488999843597412 0 -1
73.30000305175781 76.80000305175781 -5.88700008392334 0 -1
73.9000015258789 79.80000305175781 -7.672999858856201 0 -1
77.5 77.69999694824219 -8.305000305175781 0 -1
75.5 83.19999694824219 -7.750999927520752 0 -1
78.19999694824219 79.69999694824219 -8.317999839782715 0 -1
73.69999694824219 85.80000305175781 -5.480999946594238 0 -1
77.69999694824219 82.80000305175781 -7.659999847412109 0 -1
78.80000305175781 71.4000015258789 15.680999755859375 1 -1
74.9000015258789 78.30000305175781 -6.99399995803833 0 -1
71.0999984741211 71 15.704000473022461 1 -1
78 71.19999694824219 15.668999671936035 1 -1
77.80000305175781 84 -7.684999942779541 0 -1
78.0999984741211 80.5999984741211 -8.324999809265137 0 -1
75 84.80000305175781 -6.691999912261963 0 -1
73 82.80000305175781 -5.97599983215332 0 -1
77.0999984741211 72.30000305175781 15.623000144958496 1 -1
75.4000015258789 81 -7.8420000076293945 0 -1
79.5999984741211 87.80000305175781 -5.811999797821045 0 -1
79.5 84.4000015258789 -7.807000160217285 0 -1
76.19999694824219 88.9000015258789 -4.85699987411499 0 -1
71 77.0999984741211 -3.878000020980835 1 -1
78.19999694824219 79.80000305175781 -8.189000129699707 0 -1
73.5 85.19999694824219 -5.644000053405762 0 -1
72.30000305175781 82.5999984741211 -5.629000186920166 0 -1
73.19999694824219 84.5 -5.872000217437744 0 -1
71.5999984741211 71.9000015258789 15.680999755859375 1 -1
74.19999694824219 87.4000015258789 -4.869999885559082 0 -1
78.5 89.9000015258789 -4.699999809265137 0 -1
73.4000015258789 78.5 -7.059000015258789 0 -1
72.5999984741211 83 -5.310999870300293 0 -1
77.4000015258789 89.80000305175781 -4.894999980926514 0 -1
77.5999984741211 79.5 -8.289999961853027 0 -1
76.5999984741211 76.69999694824219 -7.684999942779541 0 -1
79 71.19999694824219 15.677000045776367 1 -1
79.30000305175781 80.9000015258789 -8.291999816894531 0 -1
74.80000305175781 82.4000015258789 -7.769999980926514 0 -1
72.9000015258789 79 -5.639999866485596 0 -1
74.30000305175781 88.9000015258789 -4.169000148773193 0 -1
74.4000015258789 84.4000015258789 -6.76200008392334 0 -1
76.30000305175781 88.30000305175781 -4.701000213623047 0 -1
74.5 83.9000015258789 -6.9079999923706055 0 -1
75.4000015258789 80.9000015258789 -7.828999996185303 0 -1
79.0999984741211 88.0999984741211 -5.863999843597412 0 -1
72.4000015258789 78.5999984741211 -5.0970001220703125 0 -1
72 74.4000015258789 -6.020999908447266 0 -1
72.30000305175781 82.5 -5.6479997634887695 0 -1
72.19999694824219 75.9000015258789 -6.013999938964844 0 -1
74.5999984741211 84.69999694824219 -6.5960001945495605 0 -1
74 82.9000015258789 -6.932000160217285 0 -1
72.5 71.0999984741211 15.66100025177002 1 -1
79.30000305175781 81 -8.258999824523926 0 -1
78.9000015258789 76.5999984741211 -7.666999816894531 0 -1
75 84.0999984741211 -6.995999813079834 0 -1
80 73.19999694824219 14.647000312805176 1 -1
75 73.19999694824219 14.66100025177002 1 -1
75.5 83.4000015258789 -7.610000133514404 0 -1
75.69999694824219 89.19999694824219 -4.453000068664551 0 -1
71.19999694824219 71.30000305175781 15.711000442504883 1 -1
74.69999694824219 89.80000305175781 -3.875 0 -1
79.5999984741211 87.5999984741211 -5.928999900817871 0 -1
76.0999984741211 79.30000305175781 -7.8480000495910645 0 -1
79 83.30000305175781 -7.914000034332275 0 -1
73.19999694824219 84.5999984741211 -5.815999984741211 0 -1
75.80000305175781 71 15.680000305175781 1 -1
76.69999694824219 84.5999984741211 -6.790999889373779 0 -1
71.5 74.19999694824219 -5.697000026702881 0 -1
71.30000305175781 76.4000015258789 -4.974999904632568 0 -1
73.80000305175781 76.30000305175781 -6.2779998779296875 0 -1
76.4000015258789 85.4000015258789 -6.875 0 -1
72.9000015258789 79.0999984741211 -5.6020002365112305 0 -1
75.80000305175781 82.0999984741211 -7.693999767303467 0 -1
77.5 77.5999984741211 -8.244000434875488 0 -1
73.69999694824219 86 -5.368000030517578 0 -1
75.5999984741211 80.19999694824219 -7.7779998779296875 0 -1
75.9000015258789 87.5 -4.985000133514404 0 -1
78.80000305175781 80.30000305175781 -8.456999778747559 0 -1
73.30000305175781 76.9000015258789 -5.920000076293945 0 -1
71.0999984741211 71.0999984741211 15.706999778747559 1 -1
75 84.19999694824219 -6.955999851226807 0 -1
75.19999694824219 76 -6.539999961853027 0 -1
73.4000015258789 78.69999694824219 -7.197000026702881 0 -1
77.4000015258789 74.19999694824219 14.565999984741211 1 -1
72.19999694824219 75.80000305175781 -6.22599983215332 0 -1
73.69999694824219 85.9000015258789 -5.452000141143799 0 -1
75.0999984741211 80.5999984741211 -7.724999904632568 0 -1
72.19999694824219 72 15.654000282287598 1 -1
78.69999694824219 80.69999694824219 -8.293000221252441 0 -1
77.80000305175781 83.9000015258789 -7.7230000495910645 0 -1
71.5999984741211 71.69999694824219 15.710000038146973 1 -1
73.30000305175781 77.19999694824219 -6.35699987411499 0 -1
73.9000015258789 79.4000015258789 -7.497000217437744 0 -1
76.69999694824219 84.5 -6.750999927520752 0 -1
79.69999694824219 85.19999694824219 -7.383999824523926 0 -1
78.80000305175781 71.30000305175781 15.659000396728516 1 -1
74.69999694824219 89.9000015258789 -3.9059998989105225 0 -1
75.4000015258789 81.0999984741211 -7.85699987411499 0 -1
74.19999694824219 87.19999694824219 -4.942999839782715 0 -1
76.4000015258789 85.5 -6.915999889373779 0 -1
79 83.19999694824219 -7.960999965667725 0 -1
77.9000015258789 86.5999984741211 -5.908999919891357 0 -1
73 82.69999694824219 -5.998000144958496 0 -1
75.80000305175781 71.0999984741211 15.621999740600586 1 -1
77.0999984741211 72.19999694824219 15.62600040435791 1 -1
79.5 84.30000305175781 -7.829999923706055 0 -1
77.4000015258789 86.30000305175781 -5.85099983215332 0 -1
75.80000305175781 82 -7.895999908447266 0 -1
75.30000305175781 86.5999984741211 -5.934999942779541 0 -1
75 73.0999984741211 14.621000289916992 1 -1
80 85.69999694824219 -6.932000160217285 0 -1
71.5 74 -5.697000026702881 0 -1
72.5999984741211 83.0999984741211 -5.254000186920166 0 -1
72.19999694824219 72.0999984741211 15.678999900817871 1 -1
79.4000015258789 89.4000015258789 -5.313000202178955 0 -1
73.30000305175781 73 13.329999923706055 1 -1
76.30000305175781 88.19999694824219 -4.754000186920166 0 -1
78.5999984741211 78 -8.449000358581543 0 -1
73.19999694824219 84.9000015258789 -5.613999843597412 0 -1
71 77.19999694824219 -3.9590001106262207 1 -1
76 82.80000305175781 -7.953999996185303 0 -1
75.9000015258789 87.30000305175781 -5.684999942779541 0 -1
76.5999984741211 76.5999984741211 -7.688000202178955 0 -1
72.4000015258789 78.69999694824219 -5.0980000495910645 0 -1
77.5999984741211 79.5999984741211 -8.28600025177002 0 -1
71.30000305175781 76.30000305175781 -4.992000102996826 0 -1
75.0999984741211 80.4000015258789 -7.693999767303467 0 -1
78.5 90 -4.736999988555908 0 -1
74.9000015258789 78.19999694824219 -6.980000019073486 0 -1
71.4000015258789 79.69999694824219 -6.323999881744385 0 -1
77.69999694824219 85.19999694824219 -6.869999885559082 0 -1
76 71.30000305175781 15.685999870300293 1 -1
74.80000305175781 82.30000305175781 -7.728000164031982 0 -1
78.69999694824219 79.0999984741211 -8.527999877929688 0 -1
71.19999694824219 71.19999694824219 15.696999549865723 1 -1
74.5 83.5 -6.985000133514404 0 -1
76.0999984741211 79.19999694824219 -7.7829999923706055 0 -1
76 82.69999694824219 -7.966000080108643 0 -1
79 83.4000015258789 -7.978000164031982 0 -1
75 84 -6.99399995803833 0 -1
77.0999984741211 72.4000015258789 15.62600040435791 1 -1
71.5 74.0999984741211 -5.745999813079834 0 -1
73.80000305175781 76.4000015258789 -6.248000144958496 0 -1
78.30000305175781 83 -7.564000129699707 0 -1
76.19999694824219 89 -4.817999839782715 0 -1
75.69999694824219 89.0999984741211 -4.510000228881836 0 -1
78.5999984741211 77.9000015258789 -8.394000053405762 0 -1
79.69999694824219 85 -7.383999824523926 0 -1
78 76.5999984741211 -7.810999870300293 0 -1
75.5999984741211 80.30000305175781 -7.866000175476074 0 -1
76 71.4000015258789 15.633000373840332 1 -1
75.9000015258789 87.4000015258789 -4.949999809265137 0 -1
76.69999694824219 79.30000305175781 -7.949999809265137 0 -1
79.69999694824219 71.80000305175781 15.633999824523926 1 -1
71.5999984741211 71.80000305175781 15.687999725341797 1 -1
74.0999984741211 85.69999694824219 -5.973999977111816 0 -1
77.4000015258789 74.0999984741211 14.597999572753906 1 -1
78.69999694824219 79 -8.593999862670898 0 -1
74.4000015258789 84.30000305175781 -6.744999885559082 0 -1
73.4000015258789 78.5999984741211 -7.142000198364258 0 -1
73.69999694824219 85.5999984741211 -5.539000034332275 0 -1
72.9000015258789 79.19999694824219 -5.671999931335449 0 -1
74.9000015258789 78.0999984741211 -6.9019999504089355 0 -1
72.5999984741211 83.80000305175781 -5.465000152587891 0 -1
79.9000015258789 86.19999694824219 -6.5920000076293945 0 -1
73.30000305175781 77.30000305175781 -6.3460001945495605 0 -1
73.9000015258789 79.5 -7.557000160217285 0 -1
72.4000015258789 78.5 -5.0980000495910645 0 -1
73 82.5999984741211 -5.958000183105469 0 -1
74.30000305175781 89 -4.210000038146973 0 -1
76.30000305175781 75.5999984741211 -6.860000133514404 0 -1
71.5 74.4000015258789 -5.8429999351501465 0 -1
73.30000305175781 73.19999694824219 14.642000198364258 1 -1
72.30000305175781 82.4000015258789 -5.629000186920166 0 -1
75.19999694824219 75.80000305175781 -6.5269999504089355 0 -1
71.0999984741211 71.19999694824219 15.71500015258789 1 -1
79.0999984741211 88.19999694824219 -5.767000198364258 0 -1
71.4000015258789 79 -4.968999862670898 0 -1
71.5999984741211 72.5999984741211 15.647000312805176 1 -1
74.5999984741211 84.80000305175781 -6.5329999923706055 0 -1
76.19999694824219 88.69999694824219 -4.919000148773193 0 -1
79.4000015258789 88.80000305175781 -5.564000129699707 0 -1
74 82.80000305175781 -6.985000133514404 0 -1
72.5 71 15.675999641418457 1 -1
78.19999694824219 77.9000015258789 -8.479999542236328 0 -1
79.30000305175781 81.0999984741211 -8.263999938964844 0 -1
78.9000015258789 76.69999694824219 -7.816999912261963 0 -1
79.5 85.69999694824219 -6.855999946594238 0 -1
77.69999694824219 85.0999984741211 -6.877999782562256 0 -1
75.9000015258789 87.19999694824219 -5.756999969482422 0 -1
71 77.30000305175781 -2.9749999046325684 1 -1
77.5999984741211 84.30000305175781 -7.504000186920166 0 -1
77 89.30000305175781 -4.953999996185303 0 -1
74.19999694824219 87.0999984741211 -4.9070000648498535 0 -1
77.9000015258789 87.5 -5.9720001220703125 0 -1
75.19999694824219 75.9000015258789 -6.611999988555908 0 -1
77.4000015258789 86.4000015258789 -5.840000152587891 0 -1
74.80000305175781 71 15.65999984741211 1 -1
76.5999984741211 76.5 -7.60699987411499 0 -1
71.4000015258789 79.0999984741211 -4.993000030517578 0 -1
71.30000305175781 76.19999694824219 -4.979000091552734 0 -1
74.5999984741211 84.9000015258789 -5.98199987411499 0 -1
79.5999984741211 86.4000015258789 -6.853000164031982 0 -1
74.4000015258789 84.0999984741211 -6.783999919891357 0 -1
74.5 83.69999694824219 -6.985000133514404 0 -1
78.80000305175781 80.19999694824219 -8.489999771118164 0 -1
79.0999984741211 88.30000305175781 -5.751999855041504 0 -1
75.0999984741211 80.5 -7.75 0 -1
73.5 85.30000305175781 -5.619999885559082 0 -1
75.5999984741211 79.9000015258789 -7.735000133514404 0 -1
72 74.0999984741211 -6.050000190734863 0 -1
74.80000305175781 82.19999694824219 -7.586999893188477 0 -1
74.30000305175781 88.69999694824219 -4.388999938964844 0 -1
75.80000305175781 82.4000015258789 -7.5320000648498535 0 -1
73.80000305175781 76.5 -6.168000221252441 0 -1
78.5999984741211 73.9000015258789 14.5649995803833 1 -1
76.0999984741211 79 -7.784999847412109 0 -1
75.30000305175781 87 -5.681000232696533 0 -1
79.69999694824219 71.69999694824219 15.62600040435791 1 -1
74.69999694824219 90 -3.8399999141693115 0 -1
71.19999694824219 71.0999984741211 15.75 1 -1
78.30000305175781 83.0999984741211 -7.997000217437744 0 -1
72.19999694824219 76.19999694824219 -5.982999801635742 0 -1
73.30000305175781 77.0999984741211 -6.360000133514404 0 -1
79.5999984741211 86.5 -6.781000137329102 0 -1
79.69999694824219 85.0999984741211 -7.427000045776367 0 -1
79.30000305175781 80.69999694824219 -8.45199966430664 0 -1
74 82.69999694824219 -6.964000225067139 0 -1
74.0999984741211 85.5999984741211 -5.951000213623047 0 -1
76.4000015258789 78.4000015258789 -7.443999767303467 0 -1
77.4000015258789 74 14.565999984741211 1 -1
73.4000015258789 78.80000305175781 -7.186999797821045 0 -1
78 71.5 15.619000434875488 1 -1
78.9000015258789 76.9000015258789 -7.877999782562256 0 -1
79.19999694824219 83.80000305175781 -7.914999961853027 0 -1
75.69999694824219 89.5 -3.9809999465942383 0 -1
80 72.4000015258789 15.640999794006348 1 -1
75.19999694824219 76.19999694824219 -6.616000175476074 0 -1
73.30000305175781 73.0999984741211 14.607000350952148 1 -1
77.9000015258789 87.30000305175781 -5.400000095367432 0 -1
73.69999694824219 85.69999694824219 -5.452000141143799 0 -1
78.5 88.0999984741211 -5.985000133514404 0 -1
76.0999984741211 79.0999984741211 -7.6529998779296875 0 -1
73.9000015258789 79.5999984741211 -7.5370001792907715 0 -1
71.0999984741211 71.30000305175781 15.711999893188477 1 -1
76.4000015258789 78.5 -7.5929999351501465 0 -1
77 89.0999984741211 -4.980000019073486 0 -1
75.5 83 -7.835999965667725 0 -1
72.19999694824219 76.0999984741211 -6.013999938964844 0 -1
75 84.4000015258789 -6.984000205993652 0 -1
73 82.5 -5.989999771118164 0 -1
72.19999694824219 71.69999694824219 15.651000022888184 1 -1
71.4000015258789 78.9000015258789 -4.982999801635742 0 -1
71.5999984741211 72.69999694824219 15.66100025177002 1 -1
76.19999694824219 88.5999984741211 -4.953000068664551 0 -1
79.5 85.5999984741211 -6.922999858856201 0 -1
79.4000015258789 88.69999694824219 -5.427999973297119 0 -1
73.30000305175781 72.80000305175781 13.329999923706055 1 -1
77.69999694824219 85 -6.894000053405762 0 -1
77 71.5 15.64900016784668 1 -1
71 77.4000015258789 -3.9590001106262207 1 -1
75.4000015258789 81.19999694824219 -7.835000038146973 0 -1
76 82.5999984741211 -7.6570000648498535 0 -1
74.0999984741211 84.4000015258789 -5.933000087738037 0 -1
73.5 85.5 -5.619999885559082 0 -1
75.0999984741211 80.80000305175781 -7.730999946594238 0 -1
77.80000305175781 83.80000305175781 -7.684999942779541 0 -1
79.5 73.0999984741211 14.583999633789062 1 -1
77.9000015258789 87.4000015258789 -5.349999904632568 0 -1
78 76.69999694824219 -7.785999774932861 0 -1
77.4000015258789 86.5 -5.85099983215332 0 -1
79 88.69999694824219 -5.561999797821045 0 -1
78.0999984741211 81.30000305175781 -8.246999740600586 0 -1
73.9000015258789 78.0999984741211 -6.968999862670898 0 -1
76.69999694824219 79.19999694824219 -7.889999866485596 0 -1
75.30000305175781 86.80000305175781 -5.829999923706055 0 -1
72.69999694824219 73.5999984741211 14.680999755859375 1 -1
78.5999984741211 77.80000305175781 -8.449000358581543 0 -1
79.69999694824219 71.9000015258789 15.62600040435791 1 -1
74.5 83.5999984741211 -6.97599983215332 0 -1
76 71.5 15.630000114440918 1 -1
77.5999984741211 84.4000015258789 -7.546999931335449 0 -1
76.5999984741211 76.4000015258789 -7.367000102996826 0 -1
78.4000015258789 79.9000015258789 -7.99399995803833 0 -1
74.80000305175781 82.0999984741211 -7.563000202178955 0 -1
72.19999694824219 71.80000305175781 15.664999961853027 1 -1
78.69999694824219 78.9000015258789 -8.527999877929688 0 -1
76 82.5 -7.681000232696533 0 -1
79.9000015258789 89.9000015258789 -4.931000232696533 0 -1
79.69999694824219 87 -6.25 0 -1
71.30000305175781 76.0999984741211 -4.952000141143799 0 -1
74.9000015258789 78 -6.861999988555908 0 -1
74.30000305175781 88.5999984741211 -4.4070000648498535 0 -1
74.5999984741211 83 -6.732999801635742 0 -1
73.4000015258789 81 -6.925000190734863 0 -1
73.5 85.4000015258789 -5.627999782562256 0 -1
74.4000015258789 84.19999694824219 -6.758999824523926 0 -1
75.9000015258789 87.0999984741211 -5.809000015258789 0 -1
78.69999694824219 79.30000305175781 -8.675999641418457 0 -1
78 76.4000015258789 -7.607999801635742 0 -1
72.9000015258789 79.30000305175781 -5.697999954223633 0 -1
71.19999694824219 71 15.737000465393066 1 -1
76 71.5999984741211 15.633000373840332 1 -1
79.5999984741211 86.30000305175781 -6.816999912261963 0 -1
80 72.19999694824219 15.611000061035156 1 -1
73.80000305175781 77.0999984741211 -6.098999977111816 0 -1
71.5 74.30000305175781 -5.745999813079834 0 -1
72.30000305175781 82.30000305175781 -3.436000108718872 1 -1
72.4000015258789 78.4000015258789 -5.242000102996826 0 -1
73.19999694824219 84.80000305175781 -5.708000183105469 0 -1
79 88.5999984741211 -5.623000144958496 0 -1
76.19999694824219 88.80000305175781 -4.872000217437744 0 -1
76.0999984741211 78.9000015258789 -7.7210001945495605 0 -1
76.30000305175781 75.69999694824219 -7.040999889373779 0 -1
78.5999984741211 77.69999694824219 -8.394000053405762 0 -1
77.69999694824219 85.5 -6.986000061035156 0 -1
75.69999694824219 89.4000015258789 -3.997999906539917 0 -1
75.4000015258789 81.4000015258789 -7.877999782562256 0 -1
78.5 88.19999694824219 -5.929999828338623 0 -1
74.5 84.30000305175781 -6.76200008392334 0 -1
77.9000015258789 87.19999694824219 -5.5 0 -1
71.5999984741211 72.5 15.66100025177002 1 -1
74 83.0999984741211 -6.848999977111816 0 -1
79.0999984741211 83.80000305175781 -7.947000026702881 0 -1
79.30000305175781 80.80000305175781 -8.359000205993652 0 -1
74.30000305175781 88.80000305175781 -4.291999816894531 0 -1
75.80000305175781 82.30000305175781 -7.693999767303467 0 -1
72.30000305175781 82.19999694824219 -3.364000082015991 1 -1
75.5999984741211 80 -7.7779998779296875 0 -1
74.9000015258789 77.9000015258789 -6.9019999504089355 0 -1
71.0999984741211 71.4000015258789 15.713000297546387 1 -1
77 89.19999694824219 -4.992000102996826 0 -1
77.80000305175781 83.5999984741211 -7.830999851226807 0 -1
74.19999694824219 87 -4.966000080108643 0 -1
78.30000305175781 83.19999694824219 -7.961999893188477 0 -1
73.30000305175781 74.4000015258789 -6.76800012588501 0 -1
75.5 83.0999984741211 -7.765999794006348 0 -1
76.5999984741211 76.30000305175781 -7.392000198364258 0 -1
74.4000015258789 84 -6.843999862670898 0 -1
73.19999694824219 78 -6.7769999504089355 0 -1
79.9000015258789 90 -4.96999979019165 0 -1
75.4000015258789 81.30000305175781 -7.85699987411499 0 -1
71 77.5 -2.9749999046325684 1 -1
77 89.5 -4.953999996185303 0 -1
72.5999984741211 83.9000015258789 -5.449999809265137 0 -1
79.4000015258789 88.5999984741211 -5.504000186920166 0 -1
79.69999694824219 86.80000305175781 -6.385000228881836 0 -1
79.0999984741211 83.9000015258789 -7.922999858856201 0 -1
72.5 71.19999694824219 15.675999641418457 1 -1
77.80000305175781 83.69999694824219 -7.831999778747559 0 -1
75.80000305175781 82.19999694824219 -7.671000003814697 0 -1
72 74.19999694824219 -6.0960001945495605 0 -1
73 83.4000015258789 -5.833000183105469 0 -1
78.0999984741211 81 -8.045999526977539 0 -1
73.9000015258789 78.19999694824219 -7.039999961853027 0 -1
75.30000305175781 86.9000015258789 -5.794000148773193 0 -1
78.19999694824219 78.0999984741211 -8.574999809265137 0 -1
73.0999984741211 75.19999694824219 -6.610000133514404 0 -1
71.30000305175781 76 -5.0879998207092285 0 -1
74.80000305175781 82 -7.586999893188477 0 -1
77.4000015258789 86.0999984741211 -6.678999900817871 0 -1
79.69999694824219 72 15.631999969482422 1 -1
78.4000015258789 80 -8.312999725341797 0 -1
75.0999984741211 80.69999694824219 -7.756999969482422 0 -1
73.4000015258789 80.9000015258789 -6.949999809265137 0 -1
77.5999984741211 84 -7.688000202178955 0 -1
73.80000305175781 77.19999694824219 -6.579999923706055 0 -1
74.80000305175781 71.19999694824219 15.654999732971191 1 -1
79 88.80000305175781 -5.50600004196167 0 -1
79.5999984741211 86.19999694824219 -6.853000164031982 0 -1
80 72.30000305175781 15.642000198364258 1 -1
76.69999694824219 79.0999984741211 -7.949999809265137 0 -1
78.5999984741211 74.0999984741211 14.5649995803833 1 -1
74.69999694824219 86.0999984741211 -5.9670000076293945 0 -1
79.5 86 -6.890999794006348 0 -1
76.5999984741211 77.30000305175781 -7.894000053405762 0 -1
75.69999694824219 88.80000305175781 -4.804999828338623 0 -1
77.69999694824219 85.4000015258789 -6.886000156402588 0 -1
72.69999694824219 73.5 14.675000190734863 1 -1
78.19999694824219 78.19999694824219 -8.642999649047852 0 -1
80 72.5999984741211 15.640999794006348 1 -1
74.19999694824219 86.80000305175781 -4.945000171661377 0 -1
77.5 76.19999694824219 -7.565000057220459 0 -1
78 76.30000305175781 -7.6479997634887695 0 -1
73.30000305175781 72.9000015258789 13.34000015258789 1 -1
76.4000015258789 78.5999984741211 -7.668000221252441 0 -1
78.4000015258789 80.0999984741211 -7.929999828338623 0 -1
78.0999984741211 80.9000015258789 -8.10200023651123 0 -1
73.19999694824219 85.19999694824219 -5.666999816894531 0 -1
76.0999984741211 80.80000305175781 -8.321000099182129 0 -1
75.80000305175781 85.69999694824219 -5.98799991607666 0 -1
75.30000305175781 87.19999694824219 -4.980000019073486 0 -1
78.5 88.30000305175781 -5.894000053405762 0 -1
72.9000015258789 78.4000015258789 -5.382999897003174 0 -1
77 71.5999984741211 15.685999870300293 1 -1
75.5999984741211 80.0999984741211 -7.735000133514404 0 -1
71.0999984741211 71.5 15.708000183105469 1 -1
76.69999694824219 79 -7.88700008392334 0 -1
75.5 82.80000305175781 -7.848999977111816 0 -1
73 80.30000305175781 -6.989999771118164 0 -1
76.19999694824219 87.4000015258789 -5.800000190734863 0 -1
75.9000015258789 89 -4.6479997634887695 0 -1
77.80000305175781 83.5 -7.831999778747559 0 -1
74.69999694824219 86.19999694824219 -5.932000160217285 0 -1
75.4000015258789 78.4000015258789 -6.997000217437744 0 -1
78.30000305175781 83.30000305175781 -7.959000110626221 0 -1
79.19999694824219 83.9000015258789 -7.848999977111816 0 -1
75 84.30000305175781 -6.995999813079834 0 -1
75.19999694824219 76.0999984741211 -6.504000186920166 0 -1
76.4000015258789 78.69999694824219 -7.501999855041504 0 -1
72.19999694824219 71.9000015258789 15.663000106811523 1 -1
73.4000015258789 81.0999984741211 -6.949999809265137 0 -1
74.5999984741211 83.0999984741211 -6.618000030517578 0 -1
74.4000015258789 85.9000015258789 -5.867000102996826 0 -1
78.69999694824219 79.19999694824219 -8.725000381469727 0 -1
78 76.5 -7.7170000076293945 0 -1
75.5 82.69999694824219 -7.869999885559082 0 -1
72.9000015258789 78.5 -5.567999839782715 0 -1
79.69999694824219 86.9000015258789 -6.348999977111816 0 -1
76 85.5 -6.810999870300293 0 -1
72.80000305175781 74.30000305175781 -6.659999847412109 0 -1
72.5999984741211 83.5 -5.46999979019165 0 -1
73 83.30000305175781 -5.8379998207092285 0 -1
72.19999694824219 72.5 15.659000396728516 1 -1
79.9000015258789 89.69999694824219 -5.076000213623047 0 -1
79.4000015258789 89 -5.460999965667725 0 -1
78.0999984741211 81.0999984741211 -8.10200023651123 0 -1
77.4000015258789 86.19999694824219 -6.598999977111816 0 -1
73.9000015258789 78.30000305175781 -7.086999893188477 0 -1
78.5999984741211 77.5999984741211 -8.28499984741211 0 -1
71 77.5999984741211 -4.992000102996826 0 -1
77.9000015258789 87.0999984741211 -5.449999809265137 0 -1
71.5999984741211 72.4000015258789 15.720000267028809 1 -1
77.5999984741211 84.0999984741211 -7.64300012588501 0 -1
73.80000305175781 77.30000305175781 -6.665999889373779 0 -1
79 88.9000015258789 -5.449999809265137 0 -1
72.30000305175781 82.0999984741211 -3.559000015258789 1 -1
75.5999984741211 81.69999694824219 -7.98199987411499 0 -1
74 83 -6.980999946594238 0 -1
71.4000015258789 79.30000305175781 -4.982999801635742 0 -1
79.5 85.9000015258789 -6.750999927520752 0 -1
79.9000015258789 89.5999984741211 -3.5309998989105225 1 -1
74.0999984741211 84.30000305175781 -5.927000045776367 0 -1
74.5 84.4000015258789 -6.744999885559082 0 -1
76 85.4000015258789 -6.848999977111816 0 -1
74.19999694824219 86.9000015258789 -4.992000102996826 0 -1
76.5999984741211 77.19999694824219 -7.830999851226807 0 -1
77.5 76.0999984741211 -7.48799991607666 0 -1
79.30000305175781 80.4000015258789 -8.574999809265137 0 -1
73.19999694824219 85 -5.666999816894531 0 -1
79.0999984741211 83.5 -7.961999893188477 0 -1
80 72.69999694824219 15.642000198364258 1 -1
75.69999694824219 88.69999694824219 -4.761000156402588 0 -1
71.5 74.69999694824219 -4.993000030517578 0 -1
75.19999694824219 79.5 -7.449999809265137 0 -1
77.69999694824219 85.30000305175781 -6.986000061035156 0 -1
72.30000305175781 82 -3.755000114440918 1 -1
77 89.4000015258789 -4.992000102996826 0 -1
71.30000305175781 75.9000015258789 -5.034999847412109 0 -1
71.5999984741211 72.19999694824219 15.666999816894531 1 -1
75.5 82.9000015258789 -7.811999797821045 0 -1
73 80.19999694824219 -6.142000198364258 0 -1
75 87.69999694824219 -4.999000072479248 0 -1
76.19999694824219 87.30000305175781 -5.888000011444092 0 -1
79.69999694824219 86.69999694824219 -6.744999885559082 0 -1
78.9000015258789 77.0999984741211 -7.927000045776367 0 -1
73.19999694824219 85.0999984741211 -5.64900016784668 0 -1
73.0999984741211 75.0999984741211 -6.6529998779296875 0 -1
78.5 88.4000015258789 -5.757999897003174 0 -1
74.9000015258789 79.80000305175781 -7.466000080108643 0 -1
73.80000305175781 76.80000305175781 -6.13100004196167 0 -1
74 83.4000015258789 -6.826000213623047 0 -1
78.30000305175781 83.4000015258789 -7.921999931335449 0 -1
79.30000305175781 80.5 -8.538999557495117 0 -1
79.19999694824219 71 15.690999984741211 1 -1
75.80000305175781 71.5 15.626999855041504 1 -1
74.19999694824219 86.69999694824219 -4.993000030517578 0 -1
75.80000305175781 71.5999984741211 15.642000198364258 1 -1
71.0999984741211 71.5999984741211 15.713000297546387 1 -1
79.19999694824219 83.5 -7.993000030517578 0 -1
72.5999984741211 83.69999694824219 -5.421000003814697 0 -1
75 87.80000305175781 -4.934999942779541 0 -1
75.19999694824219 79.5999984741211 -7.515999794006348 0 -1
74.4000015258789 86 -5.8979997634887695 0 -1
76.0999984741211 80.69999694824219 -8.336999893188477 0 -1
75.30000305175781 87.0999984741211 -5.585000038146973 0 -1
78.19999694824219 78.30000305175781 -8.574999809265137 0 -1
71.5 74.5 -5.892000198364258 0 -1
73 83.19999694824219 -5.822000026702881 0 -1
79.9000015258789 89.80000305175781 -4.98199987411499 0 -1
79.4000015258789 88.9000015258789 -5.521999835968018 0 -1
71 77.69999694824219 -4.982999801635742 0 -1
74.0999984741211 84.0999984741211 -5.932000160217285 0 -1
76.5999984741211 77.0999984741211 -7.946000099182129 0 -1
72.69999694824219 73.4000015258789 14.668999671936035 1 -1
74.80000305175781 90 -3.8320000171661377 0 -1
78.5999984741211 77.5 -8.196000099182129 0 -1
72.80000305175781 74.4000015258789 -6.730999946594238 0 -1
77.4000015258789 86.80000305175781 -5.560999870300293 0 -1
74.9000015258789 79.69999694824219 -7.423999786376953 0 -1
75.80000305175781 85.5999984741211 -5.964000225067139 0 -1
80 72.5 15.642000198364258 1 -1
76.69999694824219 78.9000015258789 -7.760000228881836 0 -1
76.4000015258789 78.80000305175781 -7.744999885559082 0 -1
79.5 85.80000305175781 -6.775000095367432 0 -1
76.19999694824219 87.5 -4.948999881744385 0 -1
73.9000015258789 77.9000015258789 -6.914000034332275 0 -1
76.30000305175781 75.4000015258789 -6.817999839782715 0 -1
78.4000015258789 80.19999694824219 -7.997000217437744 0 -1
78.9000015258789 77.30000305175781 -7.948999881744385 0 -1
74.0999984741211 84.19999694824219 -5.986000061035156 0 -1
77.5999984741211 84.19999694824219 -7.546999931335449 0 -1
71.4000015258789 79.19999694824219 -4.968999862670898 0 -1
72.5999984741211 83.5999984741211 -5.4770002365112305 0 -1
77.69999694824219 85.69999694824219 -6.985000133514404 0 -1
73.19999694824219 77.9000015258789 -6.826000213623047 0 -1
78.69999694824219 79.5999984741211 -8.821000099182129 0 -1
75.5999984741211 81.80000305175781 -7.85099983215332 0 -1
74.5999984741211 83.19999694824219 -6.617000102996826 0 -1
74.69999694824219 86.30000305175781 -5.826000213623047 0 -1
75.69999694824219 88.5999984741211 -4.89300012588501 0 -1
71.5 74.5999984741211 -5.988999843597412 0 -1
72.9000015258789 78.5999984741211 -5.617000102996826 0 -1
72.69999694824219 73.30000305175781 14.675000190734863 1 -1
77 71.4000015258789 15.685999870300293 1 -1
79.5999984741211 86.0999984741211 -6.644999980926514 0 -1
78.5999984741211 77.4000015258789 -8.071000099182129 0 -1
71.30000305175781 75.80000305175781 -4.980000019073486 0 -1
75.19999694824219 79.4000015258789 -7.515999794006348 0 -1
74.4000015258789 85.80000305175781 -5.960999965667725 0 -1
74.5 84 -6.931000232696533 0 -1
78.4000015258789 80.30000305175781 -7.98199987411499 0 -1
75 73.30000305175781 14.621000289916992 1 -1
77.5 76.5 -7.677000045776367 0 -1
73.19999694824219 85.4000015258789 -5.392000198364258 0 -1
71.5999984741211 72.30000305175781 15.699999809265137 1 -1
79.19999694824219 83.69999694824219 -7.947000026702881 0 -1
78.69999694824219 79.5 -8.723999977111816 0 -1
80 82.0999984741211 -8.225000381469727 0 -1
73.30000305175781 74.69999694824219 -6.781000137329102 0 -1
73 80.0999984741211 -5.964000225067139 0 -1
73.0999984741211 75 -6.664000034332275 0 -1
71.30000305175781 77.80000305175781 -3.6740000247955322 1 -1
75 87.5999984741211 -4.934999942779541 0 -1
74.5999984741211 83.30000305175781 -6.618000030517578 0 -1
73.80000305175781 76.9000015258789 -6.145999908447266 0 -1
73.30000305175781 73.5 14.645000457763672 1 -1
72.19999694824219 72.5999984741211 15.647000312805176 1 -1
79.19999694824219 71.30000305175781 15.654999732971191 1 -1
73.4000015258789 81.19999694824219 -6.925000190734863 0 -1
78.5 88.5 -5.644000053405762 0 -1
75.5 82.5 -7.869999885559082 0 -1
79.0999984741211 83.5999984741211 -7.947000026702881 0 -1
78.30000305175781 83.5 -7.803999900817871 0 -1
72.9000015258789 78.69999694824219 -5.567999839782715 0 -1
71.0999984741211 71.69999694824219 15.720999717712402 1 -1
73.19999694824219 85.5 -5.419000148773193 0 -1
71.9000015258789 77.5999984741211 -5.89900016784668 0 -1
72.80000305175781 74.5999984741211 -6.730999946594238 0 -1
76 85.30000305175781 -6.936999797821045 0 -1
71.4000015258789 78.5 -2.9690001010894775 1 -1
79.19999694824219 71.4000015258789 15.63599967956543 1 -1
71.5999984741211 73.0999984741211 13.397000312805176 1 -1
75.9000015258789 88.9000015258789 -4.761000156402588 0 -1
79.4000015258789 88.30000305175781 -5.809999942779541 0 -1
75.4000015258789 78.5 -7.185999870300293 0 -1
79.19999694824219 83.5999984741211 -7.961999893188477 0 -1
71 77.80000305175781 -4.953000068664551 0 -1
74.0999984741211 84 -5.953000068664551 0 -1
71.69999694824219 79.9000015258789 -5.091000080108643 0 -1
72.80000305175781 74.5 -6.659999847412109 0 -1
72.19999694824219 72.69999694824219 15.63700008392334 1 -1
77.4000015258789 86.9000015258789 -5.605999946594238 0 -1
73 83.0999984741211 -5.828000068664551 0 -1
74.5 84.19999694824219 -6.78000020980835 0 -1
76.5999984741211 77 -7.815999984741211 0 -1
79.0999984741211 83.69999694824219 -7.961999893188477 0 -1
77.9000015258789 88 -5.699999809265137 0 -1
72.5999984741211 82.30000305175781 -5.945000171661377 0 -1
77.5999984741211 84.80000305175781 -6.840000152587891 0 -1
78.9000015258789 77.19999694824219 -7.992000102996826 0 -1
77.69999694824219 85.5999984741211 -6.945000171661377 0 -1
76 85.19999694824219 -6.964000225067139 0 -1
73.9000015258789 78 -6.980999946594238 0 -1
74 83.30000305175781 -6.870999813079834 0 -1
79.69999694824219 86.5999984741211 -6.781000137329102 0 -1
78.19999694824219 78.4000015258789 -8.387999534606934 0 -1
79.30000305175781 80.5999984741211 -8.359000205993652 0 -1
74.80000305175781 89.9000015258789 -3.8980000019073486 0 -1
75.5999984741211 81.9000015258789 -7.775000095367432 0 -1
73.4000015258789 81.4000015258789 -6.7870001792907715 0 -1
79.5 85.19999694824219 -7.2829999923706055 0 -1
73.80000305175781 71.80000305175781 15.652999877929688 1 -1
77 89.80000305175781 -4.790999889373779 0 -1
73.30000305175781 74.5 -6.673999786376953 0 -1
73.19999694824219 85.30000305175781 -5.4730000495910645 0 -1
77 71.30000305175781 15.651000022888184 1 -1
74.69999694824219 86.4000015258789 -5.729000091552734 0 -1
75.30000305175781 87.5 -4.804999828338623 0 -1
78.0999984741211 81.69999694824219 -8.446000099182129 0 -1
74.19999694824219 86.5999984741211 -5.281000137329102 0 -1
79 89 -5.2230000495910645 0 -1
77.5 76.4000015258789 -7.610000133514404 0 -1
78.30000305175781 83.5999984741211 -7.849999904632568 0 -1
73.19999694824219 78.30000305175781 -6.9770002365112305 0 -1
71 75.80000305175781 -4.804999828338623 0 -1
79.69999694824219 72.19999694824219 15.631999969482422 1 -1
72.5999984741211 82.19999694824219 -5.947000026702881 0 -1
75.4000015258789 78.69999694824219 -7.185999870300293 0 -1
76.69999694824219 79.80000305175781 -8.175000190734863 0 -1
75.69999694824219 89 -4.632999897003174 0 -1
78.19999694824219 78.5 -8.60200023651123 0 -1
73.0999984741211 74.9000015258789 -6.848999977111816 0 -1
78.5 88.5999984741211 -5.6020002365112305 0 -1
73.80000305175781 77 -6.114999771118164 0 -1
74 83.19999694824219 -6.860000133514404 0 -1
79.19999694824219 71.19999694824219 15.684000015258789 1 -1
75.80000305175781 86 -5.892000198364258 0 -1
73 80 -5.991000175476074 0 -1
75.80000305175781 85.9000015258789 -5.98199987411499 0 -1
76.19999694824219 87.0999984741211 -5.888000011444092 0 -1
76.4000015258789 77.9000015258789 -7.894999980926514 0 -1
71.0999984741211 71.80000305175781 15.720000267028809 1 -1
80 71.9000015258789 15.621000289916992 1 -1
71.30000305175781 77.69999694824219 -3.634999990463257 1 -1
78.9000015258789 77.4000015258789 -7.992000102996826 0 -1
79.19999694824219 83.30000305175781 -7.993000030517578 0 -1
74.9000015258789 79.5999984741211 -7.4039998054504395 0 -1
74.69999694824219 86.5 -5.690000057220459 0 -1
73.30000305175781 73.5999984741211 14.64799976348877 1 -1
72.80000305175781 74.69999694824219 -6.684000015258789 0 -1
76.69999694824219 79.69999694824219 -8.3100004196167 0 -1
76.4000015258789 78 -7.874000072479248 0 -1
72 75.5999984741211 -6.175000190734863 0 -1
72.19999694824219 72.19999694824219 15.682000160217285 1 -1
71.9000015258789 77.69999694824219 -4.973999977111816 0 -1
75.9000015258789 88.80000305175781 -4.756999969482422 0 -1
79.5999984741211 87 -6.27400016784668 0 -1
75.4000015258789 78.5999984741211 -6.997000217437744 0 -1
75.19999694824219 79.80000305175781 -7.589000225067139 0 -1
79.4000015258789 88.19999694824219 -5.859000205993652 0 -1
79.69999694824219 86.4000015258789 -6.781000137329102 0 -1
78.0999984741211 81.9000015258789 -8.494000434875488 0 -1
77.4000015258789 87 -5.515999794006348 0 -1
74.4000015258789 85.69999694824219 -5.995999813079834 0 -1
71.5 77 -5.940999984741211 0 -1
73.19999694824219 78.0999984741211 -6.826000213623047 0 -1
77 89.5999984741211 -4.90500020980835 0 -1
78 76.19999694824219 -7.607999801635742 0 -1
73 83 -5.997000217437744 0 -1
75.5999984741211 81.5 -7.9670000076293945 0 -1
76 71 15.67300033569336 1 -1
71.5999984741211 73.19999694824219 14.654000282287598 1 -1
77.5999984741211 84.9000015258789 -6.739999771118164 0 -1
76.5999984741211 76.9000015258789 -7.684999942779541 0 -1
72 75.69999694824219 -6.191999912261963 0 -1
73.9000015258789 78.5999984741211 -7.209000110626221 0 -1
75.30000305175781 87.30000305175781 -4.9730000495910645 0 -1
78.5999984741211 77.30000305175781 -8.055999755859375 0 -1
80 82.69999694824219 -8.265000343322754 0 -1
79.9000015258789 89.4000015258789 -3.375999927520752 1 -1
74.5 84.0999984741211 -6.9079999923706055 0 -1
76.0999984741211 80.5999984741211 -8.241000175476074 0 -1
74.19999694824219 86.4000015258789 -5.453000068664551 0 -1
72.19999694824219 72.30000305175781 15.729999542236328 1 -1
78.69999694824219 79.4000015258789 -8.725000381469727 0 -1
74.9000015258789 79.5 -7.363999843597412 0 -1
73.30000305175781 74.5999984741211 -6.76800012588501 0 -1
79.5 85.0999984741211 -7.394000053405762 0 -1
79.69999694824219 72.4000015258789 15.638999938964844 1 -1
71.69999694824219 80.0999984741211 -5.159999847412109 0 -1
74.5999984741211 83.4000015258789 -6.979000091552734 0 -1
73.80000305175781 71.69999694824219 15.656999588012695 1 -1
78.4000015258789 80.4000015258789 -7.9720001220703125 0 -1
78.0999984741211 81.80000305175781 -8.548999786376953 0 -1
74.80000305175781 89.80000305175781 -3.8889999389648438 0 -1
73.4000015258789 81.30000305175781 -6.751999855041504 0 -1
74.0999984741211 84.9000015258789 -5.940000057220459 0 -1
74 83.69999694824219 -6.882999897003174 0 -1
79.30000305175781 80.19999694824219 -8.736000061035156 0 -1
72.5999984741211 82.4000015258789 -5.709000110626221 0 -1
71 75.9000015258789 -2.572999954223633 1 -1
76 71.0999984741211 15.684000015258789 1 -1
79.5999984741211 86.80000305175781 -6.664000034332275 0 -1
75.4000015258789 78.80000305175781 -7.329999923706055 0 -1
80 71.69999694824219 15.663999557495117 1 -1
78.30000305175781 83.69999694824219 -7.803999900817871 0 -1
73.19999694824219 78.19999694824219 -6.875 0 -1
71.5999984741211 73 13.402999877929688 1 -1
78.5999984741211 77.19999694824219 -8.071000099182129 0 -1
73.0999984741211 74.80000305175781 -6.802000045776367 0 -1
71.69999694824219 80 -5.110000133514404 0 -1
74.5999984741211 83.5 -6.9720001220703125 0 -1
73.30000305175781 73.30000305175781 14.645000457763672 1 -1
78.4000015258789 80.5 -7.9670000076293945 0 -1
72.69999694824219 72.0999984741211 15.638999938964844 1 -1
71.5 76.80000305175781 -5.855999946594238 0 -1
78.5 88.69999694824219 -5.560999870300293 0 -1
72.9000015258789 78.80000305175781 -5.664999961853027 0 -1
74.30000305175781 89.0999984741211 -4.169000148773193 0 -1
75.69999694824219 88.9000015258789 -4.761000156402588 0 -1
71.0999984741211 71.9000015258789 15.696000099182129 1 -1
73.80000305175781 77.5999984741211 -6.709000110626221 0 -1
73 79.9000015258789 -5.960999965667725 0 -1
71.30000305175781 77.5999984741211 -3.5959999561309814 1 -1
77.69999694824219 86 -6.745999813079834 0 -1
77.5 76.30000305175781 -7.685999870300293 0 -1
77.9000015258789 87.9000015258789 -5.752999782562256 0 -1
79.5999984741211 86.9000015258789 -6.317999839782715 0 -1
76 85.0999984741211 -6.936999797821045 0 -1
75.9000015258789 88.5999984741211 -4.831999778747559 0 -1
74 83.5999984741211 -6.863999843597412 0 -1
75 88 -4.906000137329102 0 -1
79.30000305175781 80.30000305175781 -8.744999885559082 0 -1
79.19999694824219 71.5999984741211 15.63599967956543 1 -1
74.5 84.80000305175781 -6.5229997634887695 0 -1
79 88.0999984741211 -5.984000205993652 0 -1
78.0999984741211 81.5 -8.26099967956543 0 -1
75 73.4000015258789 14.66100025177002 1 -1
71.9000015258789 77.80000305175781 -5.0289998054504395 0 -1
73.4000015258789 81.5 -6.751999855041504 0 -1
76.0999984741211 80.4000015258789 -8.241000175476074 0 -1
72.69999694824219 72 15.630000114440918 1 -1
75.80000305175781 71.30000305175781 15.626999855041504 1 -1
71.5 76.9000015258789 -5.995999813079834 0 -1
79.4000015258789 88.0999984741211 -5.809999942779541 0 -1
77 89.69999694824219 -4.75 0 -1
75.30000305175781 87.4000015258789 -4.956999778747559 0 -1
79.69999694824219 86.5 -6.744999885559082 0 -1
75.5 82.5999984741211 -7.848999977111816 0 -1
79.69999694824219 86.30000305175781 -6.572999954223633 0 -1
71.69999694824219 80.19999694824219 -6.4019999504089355 0 -1
75.9000015258789 88.69999694824219 -4.796999931335449 0 -1
76 85 -6.980000019073486 0 -1
74.19999694824219 86.5 -5.416999816894531 0 -1
76.5999984741211 76.80000305175781 -7.750999927520752 0 -1
78.19999694824219 78.5999984741211 -8.387999534606934 0 -1
74.80000305175781 89.69999694824219 -3.927000045776367 0 -1
77.4000015258789 86.5999984741211 -5.783999919891357 0 -1
79.5 85 -7.426000118255615 0 -1
73.9000015258789 78.69999694824219 -7.294000148773193 0 -1
73.19999694824219 78.5 -6.98799991607666 0 -1
79.9000015258789 89.5 -3.5390000343322754 1 -1
77 90 -4.730999946594238 0 -1
71.4000015258789 78.4000015258789 -3.802999973297119 1 -1
77.5999984741211 84.5 -6.997000217437744 0 -1
76.0999984741211 80.5 -8.190999984741211 0 -1
76.19999694824219 87.19999694824219 -5.928999900817871 0 -1
77.9000015258789 87.69999694824219 -5.859000205993652 0 -1
75.80000305175781 71.4000015258789 15.633000373840332 1 -1
80 71.80000305175781 15.640999794006348 1 -1
73 83.9000015258789 -5.7270002365112305 0 -1
75.80000305175781 85.80000305175781 -5.979000091552734 0 -1
76.5999984741211 77.80000305175781 -7.993000030517578 0 -1
74.80000305175781 71.69999694824219 15.642000198364258 1 -1
79 88.30000305175781 -5.815999984741211 0 -1
76.4000015258789 78.0999984741211 -7.894999980926514 0 -1
76.69999694824219 79.5999984741211 -8.130000114440918 0 -1
78.19999694824219 78.69999694824219 -8.72700023651123 0 -1
78.9000015258789 77.5 -8.192000389099121 0 -1
74.69999694824219 86.5999984741211 -5.659999847412109 0 -1
77.69999694824219 85.9000015258789 -6.940000057220459 0 -1
78.30000305175781 83.80000305175781 -7.784999847412109 0 -1
75.5999984741211 81.5999984741211 -7.989999771118164 0 -1
74.19999694824219 86.30000305175781 -5.7230000495910645 0 -1
75.69999694824219 88.30000305175781 -4.889999866485596 0 -1
72.5999984741211 82 -5.947000026702881 0 -1
73.80000305175781 77.69999694824219 -6.775000095367432 0 -1
75.30000305175781 87.69999694824219 -4.645999908447266 0 -1
79.5999984741211 86.69999694824219 -6.525000095367432 0 -1
77.9000015258789 87.80000305175781 -5.806000232696533 0 -1
78.69999694824219 79.80000305175781 -8.821000099182129 0 -1
71.9000015258789 77.4000015258789 -5.679999828338623 0 -1
74.4000015258789 85.5999984741211 -5.960999965667725 0 -1
75.9000015258789 88.5 -4.932000160217285 0 -1
79.5 85.5 -6.889999866485596 0 -1
71 76 -2.440999984741211 1 -1
76.0999984741211 80.30000305175781 -8.190999984741211 0 -1
72.9000015258789 77.9000015258789 -6.760000228881836 0 -1
79 88.19999694824219 -5.939000129699707 0 -1
78.5 88.80000305175781 -5.52400016784668 0 -1
77.80000305175781 83 -7.60099983215332 0 -1
74.9000015258789 79.4000015258789 -7.2129998207092285 0 -1
74.69999694824219 86.69999694824219 -5.627999782562256 0 -1
75.4000015258789 77.9000015258789 -6.9770002365112305 0 -1
73.19999694824219 85.69999694824219 -5.376999855041504 0 -1
76.4000015258789 78.19999694824219 -7.443999767303467 0 -1
77.5 76.69999694824219 -7.677000045776367 0 -1
72.19999694824219 72.4000015258789 15.652999877929688 1 -1
71.0999984741211 72 15.696999549865723 1 -1
75.80000305175781 85.19999694824219 -6.915999889373779 0 -1
75.5 82.30000305175781 -7.953999996185303 0 -1
73 80.80000305175781 -5.683000087738037 0 -1
78.69999694824219 79.69999694824219 -8.574000358581543 0 -1
76.19999694824219 87.9000015258789 -4.882999897003174 0 -1
76.69999694824219 79.5 -8.3100004196167 0 -1
79.9000015258789 89.19999694824219 -3.375999927520752 1 -1
71.5 77.19999694824219 -4.96999979019165 0 -1
79.5 73.30000305175781 14.57699966430664 1 -1
77.4000015258789 86.69999694824219 -5.605999946594238 0 -1
71.30000305175781 77.5 -3.556999921798706 1 -1
75.19999694824219 79.69999694824219 -7.640999794006348 0 -1
75 87.9000015258789 -4.859000205993652 0 -1
74.5999984741211 83.5999984741211 -6.991000175476074 0 -1
73.4000015258789 81.5999984741211 -6.696000099182129 0 -1
79.4000015258789 88.5 -5.427999973297119 0 -1
74.80000305175781 89.5999984741211 -3.8889999389648438 0 -1
76 86 -5.978000164031982 0 -1
73.9000015258789 78.80000305175781 -7.349999904632568 0 -1
78.5999984741211 77.0999984741211 -8.055999755859375 0 -1
75.5 82.19999694824219 -7.99399995803833 0 -1
74.80000305175781 71.80000305175781 15.616000175476074 1 -1
77.9000015258789 87.5999984741211 -5.921999931335449 0 -1
72.9000015258789 78 -6.675000190734863 0 -1
71.5999984741211 72.9000015258789 13.397000312805176 1 -1
74.9000015258789 79.30000305175781 -7.197000026702881 0 -1
74.4000015258789 85.4000015258789 -5.921999931335449 0 -1
80 72.0999984741211 15.621000289916992 1 -1
72.69999694824219 71.9000015258789 15.642999649047852 1 -1
79.0999984741211 83.4000015258789 -7.914000034332275 0 -1
73.30000305175781 73.4000015258789 14.642000198364258 1 -1
78.4000015258789 80.5999984741211 -7.9720001220703125 0 -1
78.0999984741211 81.5999984741211 -8.274999618530273 0 -1
75.5999984741211 81.19999694824219 -7.980000019073486 0 -1
77.5999984741211 84.5999984741211 -6.840000152587891 0 -1
71.4000015258789 78.80000305175781 -5.415999889373779 0 -1
73 83.80000305175781 -5.7270002365112305 0 -1
76 85.9000015258789 -5.98199987411499 0 -1
76.5999984741211 77.69999694824219 -7.9670000076293945 0 -1
75 87.19999694824219 -4.984000205993652 0 -1
77.69999694824219 85.80000305175781 -6.961999893188477 0 -1
74.5999984741211 83.69999694824219 -6.9670000076293945 0 -1
71.5 77.30000305175781 -4.9120001792907715 0 -1
74.5 84.9000015258789 -5.998000144958496 0 -1
75.30000305175781 87.80000305175781 -4.952000141143799 0 -1
75.69999694824219 88.19999694824219 -4.942999839782715 0 -1
78.30000305175781 83.9000015258789 -7.741000175476074 0 -1
75.0999984741211 75.4000015258789 -6.64300012588501 0 -1
73.80000305175781 77.80000305175781 -6.839000225067139 0 -1
78.5999984741211 77 -7.946000099182129 0 -1
79.30000305175781 79.9000015258789 -8.387999534606934 0 -1
74 83.5 -6.882999897003174 0 -1
74.0999984741211 84.80000305175781 -5.9679999351501465 0 -1
79.5 85.4000015258789 -6.922999858856201 0 -1
71 76.0999984741211 -2.572999954223633 1 -1
79 88.4000015258789 -5.623000144958496 0 -1
79.9000015258789 89.0999984741211 -3.4200000762939453 1 -1
79.69999694824219 86.19999694824219 -6.609000205993652 0 -1
71.9000015258789 77.5 -5.88100004196167 0 -1
77.5 76.5999984741211 -7.744999885559082 0 -1
73.0999984741211 75.5999984741211 -6.554999828338623 0 -1
78.5 88.9000015258789 -5.559999942779541 0 -1
73.19999694824219 85.5999984741211 -5.392000198364258 0 -1
71.0999984741211 72.0999984741211 15.680999755859375 1 -1
77 89.9000015258789 -4.75 0 -1
75.19999694824219 79 -7.2179999351501465 0 -1
78.9000015258789 77.5999984741211 -8.244000434875488 0 -1
75.5 82.4000015258789 -7.99399995803833 0 -1
73 80.69999694824219 -5.640999794006348 0 -1
71.5 77.0999984741211 -5.995999813079834 0 -1
72 75.4000015258789 -6.175000190734863 0 -1
71.30000305175781 77.4000015258789 -2.752000093460083 1 -1
77.69999694824219 84.19999694824219 -7.5980000495910645 0 -1
79.9000015258789 89.30000305175781 -3.4200000762939453 1 -1
71.4000015258789 78.5999984741211 -3.507999897003174 1 -1
75.9000015258789 72.9000015258789 14.583000183105469 1 -1
77.4000015258789 87.30000305175781 -5.947999954223633 0 -1
74.5 84.5999984741211 -6.617000102996826 0 -1
79.4000015258789 88.4000015258789 -5.504000186920166 0 -1
